ply
format ascii 1.0
comment zipper output
element vertex 1545
property float x
property float y
property float z
end_header
25.565650 94.381300 -55.391000
44.539450 69.347335 -67.278000
77.357400 88.743500 -38.204150
76.759600 89.627250 -37.631300
25.523550 92.849950 -59.934000
48.702600 63.260200 -78.959500
54.597050 57.562200 -78.904500
48.892300 66.311390 -71.667500
45.822150 67.671065 -71.506500
26.241500 92.289850 -59.504000
51.894400 60.396100 -78.962000
15.026700 82.587550 -59.980000
42.897600 68.887280 -71.374000
68.067800 57.282150 -36.487000
64.819125 89.332050 -47.524000
67.385200 93.758800 -15.982700
70.544600 92.182000 -16.055700
71.950300 90.696200 -16.024050
27.843850 89.765050 -60.173500
27.846350 94.175850 -51.047000
15.364100 82.598200 -58.596000
32.800850 88.289050 -49.593000
33.430400 81.450900 -64.275000
88.209450 80.946750 -16.182750
51.715550 61.608150 -75.921500
32.439200 88.050050 -55.043500
78.109650 85.280200 -41.905500
35.213400 72.231705 -61.207000
38.539600 72.261780 -64.235500
36.599900 83.441800 -52.304500
70.976950 91.224650 -42.020000
25.363350 94.311500 -46.680500
39.669700 73.008970 -68.277000
45.432700 67.329110 -78.585500
53.373450 59.022150 -78.959000
77.853350 64.083250 -39.074600
40.389200 70.780755 -71.494500
50.728700 64.797050 -69.689000
33.851150 83.941650 -58.285500
37.391950 66.863805 -74.440500
82.933650 73.589460 -33.456900
79.537500 69.303905 -42.198500
66.325050 95.317800 -17.082700
67.069250 94.634350 -17.070850
68.162500 94.018000 -17.088750
69.649000 93.715750 -17.216150
70.081650 93.280000 -16.787950
71.020350 92.634750 -17.194750
71.497250 91.810700 -16.773700
72.410850 91.124400 -17.168200
72.954800 90.391850 -16.736200
74.024550 89.935200 -17.069900
75.653600 88.852950 -17.056700
76.479800 88.026000 -17.106350
77.208900 87.050350 -16.992600
70.967800 86.577950 -49.298500
72.105900 92.418700 -39.093900
31.260700 89.574350 -49.605000
82.757150 72.093530 -33.442800
32.713950 84.082500 -62.848500
84.266750 85.431050 -17.293350
85.909600 84.370750 -17.285050
86.811400 83.646100 -17.339300
87.554450 82.698050 -17.250350
88.680000 81.098650 -17.264750
44.345850 69.247310 -70.526000
40.152900 71.070515 -70.088000
25.724350 91.856950 -61.747500
13.925450 84.148200 -49.721000
53.221250 63.186750 -72.971000
80.407750 84.642900 -36.986050
55.037210 59.068300 -75.964000
24.534200 93.362000 -60.216500
36.905450 82.270050 -53.696500
28.099700 89.610250 -46.755500
36.365850 76.559050 -57.365000
14.686400 77.960600 -59.762500
26.070600 94.673950 -54.227000
75.095850 89.545950 -17.493650
77.859300 86.496300 -17.395800
73.907900 86.685900 -46.706000
25.888250 93.097850 -58.088000
85.249500 84.909550 -17.702650
88.176350 82.099050 -17.651000
41.520400 72.170640 -68.652500
13.036750 79.498600 -53.964000
22.666600 76.536150 -23.146550
76.546950 84.920550 -45.243000
46.389300 66.918270 -71.967000
47.573650 69.076450 -70.171000
27.856950 89.764350 -58.381500
22.823950 43.162550 -79.387500
30.321350 87.182700 -61.584500
48.970050 63.179550 -75.993500
28.496900 88.492750 -58.713500
66.495750 95.578850 -18.486450
67.929900 94.575450 -18.490250
69.514250 94.241850 -18.546000
70.596350 93.754950 -18.685600
71.249250 93.052200 -18.486900
72.013450 92.285850 -18.665300
72.732150 91.681000 -18.480400
73.810350 90.952900 -18.614200
74.394000 90.296500 -18.190100
75.428450 89.851550 -18.608400
76.948250 88.535950 -18.502600
77.588400 87.432950 -18.150100
78.215200 86.764950 -18.550200
78.772050 85.915650 -18.323000
28.636750 53.239200 -67.134500
78.029250 88.245100 -37.565050
16.338550 93.204700 -47.990500
35.532650 85.463000 -52.360000
85.474000 84.983000 -18.808950
86.294900 84.532350 -18.634350
87.191450 83.771450 -18.741800
87.828450 82.931000 -18.719350
88.282950 82.258300 -18.692450
89.055600 81.175500 -18.660750
75.165550 90.979450 -37.564750
57.921225 91.950950 -40.998000
28.866100 42.688400 -71.850000
50.287850 64.635900 -72.692500
36.535100 83.388000 -53.375500
38.823500 70.704840 -63.910000
32.347950 85.017050 -62.894500
41.913450 71.257755 -67.062000
34.546050 76.843450 -64.272500
35.198800 85.010500 -55.186000
28.839800 88.735700 -61.484500
27.467250 90.526050 -58.398000
32.837150 85.397950 -58.288500
34.614150 85.741450 -55.273000
76.445700 89.314500 -18.908600
77.802450 87.757900 -18.879150
26.364100 92.456100 -58.079000
27.410950 94.854350 -51.063500
26.727000 95.622400 -51.073500
35.050750 75.947700 -64.252000
42.889850 69.763215 -70.484000
29.265200 87.854700 -58.346000
36.373650 74.345590 -63.869000
76.282150 89.238050 -39.088300
43.286350 71.192260 -69.739000
28.051850 91.198850 -55.142500
27.417600 91.769750 -55.580500
36.694200 74.553445 -67.042000
66.676100 95.414200 -20.170500
68.053850 94.769750 -20.006600
69.579050 94.341950 -19.911950
70.750750 93.844450 -19.935750
71.503450 93.170750 -19.930450
72.379600 92.416100 -19.990500
72.856850 92.046900 -19.595900
73.932850 91.408500 -19.934000
75.518850 90.182450 -19.827250
76.710550 89.535950 -20.016200
77.447250 88.727100 -19.826900
78.037450 88.117100 -20.095400
78.605700 86.993350 -19.811000
79.049100 86.039300 -19.486300
28.383150 92.759450 -52.421000
28.955550 91.808850 -52.403500
13.554800 87.139400 -51.097500
87.162350 83.995250 -20.059700
87.926800 83.073750 -19.744200
88.508950 82.416550 -20.117000
89.204650 81.412300 -20.039350
89.546950 80.760050 -20.047250
44.925650 66.566305 -75.802000
78.433900 88.372450 -36.099450
48.920550 64.858250 -73.055500
30.006900 86.997300 -60.065500
16.158550 72.214580 -38.079000
82.865500 73.586120 -34.859150
13.591850 84.143250 -51.078500
78.537100 62.011850 -31.774700
23.584400 53.047350 -67.371000
64.785665 96.787450 -20.610950
74.906500 90.622450 -20.279250
79.240650 86.329000 -20.536000
37.769700 72.844900 -63.861500
86.473400 84.512250 -20.444700
75.810950 85.739300 -45.432000
32.676350 86.886450 -56.569500
45.604100 65.778890 -74.506500
27.138650 65.644530 -55.392000
18.326000 70.800285 -45.102000
28.426400 60.408450 -64.337000
33.181450 84.261400 -59.066500
29.368400 41.203100 -74.296500
29.171850 58.872750 -68.694000
24.048650 88.332650 -27.740250
67.684750 95.129100 -20.870300
68.688200 94.824750 -21.579150
69.543350 94.302900 -21.585000
70.619300 93.749600 -21.470400
71.382950 93.197450 -21.703450
72.509900 92.441050 -21.613800
74.062900 91.611250 -21.637050
75.016300 90.790800 -21.631050
75.611500 90.420150 -21.503000
76.928200 89.725300 -21.715850
77.499250 89.102450 -20.970650
78.300200 88.337500 -21.703400
78.897000 87.312600 -21.148750
26.391200 93.818200 -54.912000
87.229450 83.850250 -21.445900
88.501100 82.604100 -21.427950
89.250350 81.491950 -21.391950
89.602650 80.745400 -21.624850
37.156000 73.715715 -64.223000
26.833200 91.437150 -46.442500
47.744050 63.911550 -77.349500
30.838000 86.653450 -63.029000
80.818250 67.703050 -37.448900
27.450200 93.183000 -47.864500
76.933550 88.425650 -39.407750
44.557950 67.956180 -71.648500
76.715500 86.979100 -41.996500
24.783900 93.716400 -59.160000
14.049650 73.885170 -52.373000
65.000350 97.150050 -21.933950
65.593700 96.470600 -21.513400
66.542800 96.120450 -21.888950
67.890750 95.431200 -21.908450
79.483800 86.706150 -21.924750
33.592450 86.193150 -56.269500
37.994150 73.174035 -64.591500
54.567250 61.892250 -72.901000
52.328000 61.005700 -76.371500
47.444850 65.798605 -72.683500
25.987250 93.230750 -57.024000
28.332500 91.358050 -48.141000
15.119950 73.757445 -46.999500
44.776950 70.725235 -69.768000
29.630800 88.239400 -61.682500
37.147900 82.469400 -52.307000
32.261400 86.476850 -57.664500
19.727250 67.865470 -43.426000
70.739800 92.344700 -40.611000
75.799100 90.400500 -23.028400
80.494300 84.634550 -22.154750
72.899200 89.019750 -44.150000
87.569900 82.941750 -23.208900
88.398700 82.285350 -22.980400
89.072700 81.250050 -23.237250
89.573050 80.653650 -22.696750
79.219100 86.445300 -37.712900
21.605750 63.741000 -37.729200
33.750550 77.935300 -65.761500
29.739900 88.333300 -63.102500
49.420900 62.538300 -78.960000
43.912450 68.597305 -71.197500
41.290650 71.829280 -67.358000
66.574750 96.617700 -23.275450
67.260000 96.292150 -23.284700
68.048850 95.673550 -23.284750
68.884950 95.125300 -23.285750
69.726400 94.582100 -23.286800
70.653650 93.872600 -23.406050
71.290250 93.146900 -23.211600
72.439000 92.346750 -23.285200
74.009200 91.545050 -23.311000
75.220150 90.806700 -23.434700
76.985750 89.696750 -23.337400
78.488350 88.349250 -23.323600
79.598100 86.873750 -23.283300
80.248350 85.353200 -23.279350
80.520050 84.679500 -22.835250
12.778450 81.135750 -52.434500
14.110400 79.583950 -61.334000
50.328150 66.466725 -71.254000
45.661150 70.254408 -69.066000
44.448600 67.495720 -51.478500
24.377350 94.876600 -56.682500
28.993700 91.867350 -50.987000
73.463550 92.181250 -37.449300
50.367050 61.708350 -78.960000
50.341000 65.217335 -69.372000
30.836050 89.180450 -48.489500
26.368300 95.525550 -48.606500
28.371550 92.775750 -49.608000
79.045250 87.065300 -37.064700
35.015050 75.902000 -65.346500
89.911150 79.676200 -22.986850
54.364450 61.327000 -74.196500
72.525400 92.760450 -37.713550
81.087250 66.102570 -33.307850
72.651250 91.713850 -39.478450
79.748300 63.609350 -33.198900
15.645350 70.991780 -49.736000
44.539450 70.641885 -68.733500
47.364250 67.447510 -71.238000
31.188050 88.175500 -56.549500
28.794600 90.246650 -55.200500
36.250350 84.277850 -52.327000
29.856300 89.537000 -48.427500
42.501050 70.041037 -66.079000
66.398300 96.811050 -24.623850
67.295550 96.356850 -24.645350
68.196100 95.902050 -24.647950
69.264100 95.249400 -24.656450
70.005650 94.706950 -24.546500
70.946900 94.162000 -24.778600
71.539900 93.247400 -24.298550
72.314100 92.611850 -24.745700
72.840100 92.048350 -24.289300
73.900900 91.397000 -24.640250
75.247550 90.709400 -24.662300
75.950850 90.411400 -24.677250
76.951150 89.658100 -24.677600
78.438850 88.289600 -24.663300
79.596700 86.882600 -24.629350
80.252000 85.632400 -24.581350
80.634150 84.847900 -24.539250
79.251350 65.337820 -37.440900
39.651600 71.819645 -71.678000
88.539350 80.941700 -24.587200
89.257000 79.614300 -24.724950
74.659750 90.398550 -39.758150
53.859200 62.354100 -73.455000
31.922550 89.024200 -49.196000
28.528050 50.197900 -68.786000
82.240850 69.096855 -33.399850
28.658050 88.650050 -46.366000
48.345350 67.110510 -71.249000
42.891350 70.622625 -67.189500
28.249250 82.487750 -21.268600
27.419250 90.482050 -60.186000
51.468100 62.828950 -74.163000
15.230100 79.715550 -36.140350
16.949300 79.676900 -43.511000
14.021350 76.790800 -47.172000
77.656000 61.106950 -32.035150
16.879600 69.412330 -49.635500
44.944600 56.306050 -34.816550
35.203450 83.696350 -56.505000
45.896600 61.911350 -79.138500
24.214400 47.005900 -72.958500
45.349800 67.204165 -77.849500
51.235600 64.253750 -72.709000
71.645800 90.429950 -42.338000
43.270350 71.189970 -68.485500
51.501400 65.976050 -71.265000
47.510250 64.803300 -79.012500
55.591070 58.625650 -74.818500
28.884000 89.894900 -47.879000
27.720500 90.883300 -47.035000
66.452800 96.902200 -25.970100
67.418650 96.549300 -25.996750
68.233600 95.970200 -25.997100
69.618250 95.340650 -26.018200
71.225400 94.390100 -25.992250
72.591850 92.844150 -25.964400
74.008350 91.563100 -25.887100
75.094550 90.940200 -26.182900
75.764500 90.439950 -25.904100
76.927700 89.823350 -25.984350
78.444400 88.305700 -26.008700
79.592850 86.890700 -25.976050
80.334000 85.755800 -25.939750
80.754550 85.034150 -25.908200
81.285950 84.029150 -25.859550
81.864900 82.791900 -25.909200
74.228100 88.897350 -42.213500
71.361250 91.781400 -40.884500
29.372950 89.327300 -56.254000
52.691100 64.239600 -70.627000
19.328850 70.488688 -64.071000
26.927000 92.829900 -55.246000
35.696700 89.677800 -24.679100
18.648750 66.715225 -36.553800
74.584500 85.900700 -47.040500
27.706550 93.550900 -48.574000
70.613500 95.020000 -26.389150
72.118500 93.665850 -26.371450
73.452700 92.072200 -26.344750
77.649950 89.366450 -26.376150
14.647500 76.509800 -57.256000
21.919600 45.001950 -77.517500
26.879250 79.539600 -20.560250
81.681500 67.600745 -33.355150
34.999800 86.454700 -50.598500
28.214250 51.643650 -67.143000
45.996150 60.633800 -45.129000
28.729450 41.221600 -71.615500
19.186600 82.701000 -28.802150
20.661100 68.823265 -63.986500
43.841850 70.243774 -67.574000
45.697950 68.783645 -67.614000
48.068700 64.067950 -74.881000
46.841450 65.853430 -79.331500
27.667300 90.799250 -56.270500
81.759600 68.996280 -36.249350
77.772200 83.460650 -44.992500
69.486450 64.866550 -49.507500
66.602300 97.135650 -27.339850
67.694050 96.666800 -27.472950
68.237200 96.281150 -27.249200
69.624000 95.800300 -27.395000
70.682250 95.128650 -27.407500
71.259450 94.641100 -27.402050
72.182450 93.949600 -27.467150
72.864100 92.991950 -27.207600
73.688250 92.435950 -27.557700
74.374450 91.961050 -27.278350
75.477100 91.255350 -27.344450
76.886800 90.025750 -27.384850
77.826450 89.336350 -27.500350
78.608150 88.361950 -27.316150
79.610750 86.926150 -27.324700
80.370950 85.831000 -27.294000
80.783750 85.092800 -27.262350
81.366100 84.052100 -27.468700
81.892650 82.917150 -27.326150
15.501600 84.098150 -58.603000
77.662800 68.048030 -44.767500
28.684350 63.209700 -64.144000
33.580350 80.705350 -64.279500
31.578650 85.749950 -60.212500
28.251150 89.901050 -56.602000
30.870550 89.295250 -54.869500
37.247500 63.823700 -50.690500
76.221150 90.826950 -27.738700
82.184000 82.238350 -27.798000
82.613700 81.091050 -27.736100
83.024750 79.582550 -27.652850
34.147650 81.193000 -59.650500
58.931015 59.396000 -44.855500
40.577150 71.207725 -65.341000
39.692200 73.049400 -67.554500
35.838200 73.789175 -62.555500
24.320750 48.532750 -70.149000
80.490950 79.836250 -41.422500
29.214150 57.705750 -68.823000
66.636600 97.185800 -29.026100
68.166250 96.778300 -28.736050
69.505650 96.079150 -28.754700
70.522100 95.347750 -28.758500
71.372200 94.819450 -28.765000
72.420750 94.138300 -28.768850
73.118150 93.379950 -28.756550
73.991900 92.635000 -28.703550
75.541650 91.614100 -28.765750
76.458550 90.884150 -28.873050
77.090600 90.156600 -28.680750
77.914200 89.322900 -28.735950
78.734050 88.315650 -28.714400
79.675000 87.028100 -29.014700
80.408100 85.883850 -28.978950
80.798750 85.137650 -28.951650
81.274750 84.183300 -29.100050
37.183550 72.013175 -62.939000
36.621700 73.404460 -63.133000
30.885600 86.393250 -60.025500
27.524650 90.587000 -56.975000
51.870000 58.563650 -42.081500
82.722800 73.584945 -36.254250
80.936600 83.886150 -36.257600
30.417950 87.340600 -62.675500
21.097850 57.533050 -70.190000
82.131000 71.091370 -37.266250
74.718450 92.185450 -29.095900
81.855250 83.130700 -29.199400
82.225450 82.321100 -29.158950
82.711950 81.069700 -29.202300
83.004250 79.894000 -29.026550
83.203050 76.657050 -29.167000
80.649050 76.331300 -42.128000
29.428350 87.809200 -60.271000
13.286000 82.632000 -53.810500
82.061650 71.591575 -37.964750
47.770450 63.937150 -76.113000
81.719850 82.585600 -34.783100
27.918750 92.705150 -48.318500
29.078300 53.204300 -70.785500
67.985450 96.700950 -30.003100
69.504300 95.912350 -30.495300
70.749050 95.251200 -30.433600
71.521900 94.834300 -30.285150
72.451050 94.194350 -30.457550
73.170650 93.468100 -30.446200
73.972900 92.694700 -30.437850
74.728900 92.205250 -29.772000
75.523350 91.599950 -30.443550
76.541250 90.869500 -30.445700
77.254250 90.144250 -30.436250
77.724150 89.499350 -30.418350
78.532050 88.471450 -30.394550
83.119100 78.072700 -29.195900
15.548950 72.219065 -57.083500
78.773550 84.328150 -42.113500
31.731900 87.469300 -56.970500
77.703050 87.783450 -39.069350
73.024850 85.651600 -48.445000
20.002700 69.582331 -63.994500
32.370050 85.033450 -61.698000
36.494700 74.523495 -64.597500
20.986100 75.030300 -24.720250
25.388550 95.450350 -53.878500
66.647100 96.782050 -30.684850
68.246650 96.318950 -30.843400
79.863250 86.897450 -30.692900
80.583950 85.722550 -30.660800
80.920500 85.041000 -30.747550
81.415350 84.082100 -30.523950
81.906900 83.125600 -30.570800
82.218800 82.330650 -30.587950
82.646250 81.107400 -30.508500
82.927400 79.651900 -30.503600
63.564115 59.934700 -44.008500
78.223150 86.777400 -39.378200
78.936950 85.751000 -39.468700
26.429250 93.837900 -47.109500
50.465650 65.344720 -71.991500
70.270000 87.574950 -48.323000
19.696200 94.182000 -48.146000
74.599650 92.021600 -31.099150
22.012500 44.054450 -79.343000
76.090900 88.958550 -39.746700
71.491000 87.587300 -47.009500
33.397700 85.917450 -56.965500
17.853100 67.792765 -36.458900
28.798350 47.203800 -71.946500
14.713300 76.578350 -64.068500
28.363700 42.817900 -70.285500
72.624600 87.290650 -46.756000
46.273950 62.245450 -79.995500
64.086595 97.906100 -31.644400
65.154450 97.448550 -31.952350
66.157750 96.812400 -32.118700
66.940850 96.330550 -32.014550
70.651150 95.127300 -31.782200
71.138750 94.775200 -32.183750
72.299750 93.992450 -32.122700
73.150600 93.453200 -32.125300
73.885550 92.753800 -32.117550
74.491700 91.875900 -32.092950
75.397850 91.425300 -32.106400
76.502500 90.829400 -32.121500
77.201700 90.077950 -32.108750
77.687250 89.451550 -32.093100
78.503350 88.438450 -32.071750
79.844550 86.867850 -32.039850
80.580950 85.716350 -32.005400
80.827400 85.211400 -31.985950
81.420700 84.128150 -31.900800
81.909150 83.154650 -32.061200
21.046750 94.064200 -46.835000
13.111000 82.737550 -52.505500
47.244950 64.349550 -75.863000
31.879850 88.997150 -54.173000
49.484700 62.638150 -80.073000
48.925500 60.256850 -74.497500
21.935800 66.021415 -44.056000
80.354400 64.612400 -33.247650
53.893050 61.076850 -74.909000
47.988500 63.984600 -78.590000
27.480550 94.668550 -49.538500
77.348950 84.617400 -44.344000
79.372650 85.211200 -39.230300
21.064550 86.926100 -42.152000
34.801850 86.143550 -49.150000
29.329050 91.019550 -49.910500
15.277950 76.605950 -59.936500
22.864200 79.520700 -23.425050
82.127900 69.595545 -35.853850
46.680800 65.568975 -73.395500
26.318300 89.618250 -45.477000
27.145600 62.162250 -42.226000
49.703450 65.558335 -71.982500
82.264200 69.347390 -34.806600
79.097550 84.495450 -41.003500
65.051900 97.558500 -33.334550
66.373900 96.842200 -33.363000
67.131850 96.178250 -33.359400
72.250500 93.935700 -33.461550
73.110750 93.408650 -33.465700
73.805300 92.654200 -33.451650
74.489450 91.880800 -33.437000
75.424450 91.483050 -33.453200
76.598950 90.982100 -33.479550
77.279550 90.203150 -33.463900
77.858600 89.430800 -33.557750
78.576700 88.366600 -33.367550
79.629900 87.000950 -33.382950
80.372800 85.887850 -33.349050
80.761100 85.126700 -33.321750
81.288550 84.120500 -33.282350
74.800300 90.601500 -39.103550
77.345650 85.948800 -42.353000
30.484900 90.486800 -52.403500
48.259950 64.343500 -74.149000
68.744900 94.998200 -33.700700
60.494111 59.929150 -45.355000
16.037200 74.599465 -62.684500
77.544250 87.549150 -39.732500
29.649250 91.037350 -52.396000
24.081650 60.687000 -62.657500
22.659800 44.238450 -77.862500
73.218950 91.828900 -38.427400
80.640600 65.111030 -33.271100
27.524950 93.267150 -53.845000
66.971800 96.249850 -34.810950
67.955750 95.620100 -34.707700
68.663300 94.885250 -34.692050
72.303600 93.720500 -34.682650
72.833550 93.308900 -34.903750
73.710700 92.524150 -34.783450
74.484000 91.892550 -34.780900
75.447700 91.531550 -34.804000
76.554950 90.925350 -34.817300
77.260300 90.185900 -34.806050
77.924150 89.381650 -34.789650
78.671350 88.272650 -34.758800
79.555250 86.921750 -34.718950
80.296100 85.522950 -34.737100
80.644150 84.966550 -34.314350
81.111550 83.949250 -34.638000
21.015750 69.058250 -65.724000
21.552350 63.230800 -69.776500
21.699750 69.050060 -67.107000
33.333200 87.587750 -54.155500
33.327400 87.536550 -49.170500
22.446100 66.718985 -58.239000
47.468400 62.416900 -47.705000
21.188650 60.510500 -70.377000
43.359650 68.235845 -71.922500
29.438700 82.833450 -21.108650
55.184925 57.719700 -75.953000
82.435200 78.080700 -36.240300
28.686900 53.203600 -71.955500
21.885900 66.061700 -64.312500
75.053000 89.660550 -40.404500
16.508500 72.042885 -46.798500
13.024450 78.024700 -49.547500
23.054100 43.077900 -80.294000
72.202400 87.730700 -46.344000
24.366700 65.513555 -53.876000
57.757165 53.448250 -37.471600
37.221600 70.871795 -62.922000
28.493300 56.196800 -65.547500
53.481150 56.277400 -77.541000
15.262650 87.088950 -59.994000
72.037350 93.634300 -35.787300
76.426000 90.745650 -35.810400
77.685650 89.482150 -35.793450
34.923150 75.787200 -66.072000
28.168050 58.880150 -64.245500
34.777600 86.158050 -54.147500
25.116250 95.057150 -54.917500
13.785800 76.617150 -55.478000
45.210050 66.996015 -77.108500
42.829800 58.305150 -37.894650
48.818000 66.280830 -68.715500
54.206500 61.847750 -72.064500
29.115700 52.204000 -69.993500
29.105900 87.619650 -59.060500
25.581850 61.870250 -37.948400
22.010000 65.002205 -64.306500
55.013095 57.611750 -74.669000
22.584450 63.090350 -37.847800
27.049500 62.999450 -43.692000
51.852300 63.620400 -70.439500
18.511750 70.925250 -61.133500
70.932700 68.908945 -8.253650
70.095550 67.534685 -8.043100
69.705050 66.160405 -8.181050
69.422300 64.662450 -8.152650
69.222800 63.260500 -8.194000
68.335800 63.060000 -7.441200
68.350550 62.041750 -7.713000
70.501750 89.374450 -8.704200
70.739350 88.442450 -8.624250
71.060200 87.116200 -8.601300
23.782250 55.958550 -63.987000
28.520550 54.704800 -71.955000
29.501450 39.684050 -75.794000
26.880350 81.233900 -21.151800
30.080150 60.264850 -38.072150
80.972450 73.588745 -9.816700
80.023450 72.153640 -9.588850
79.802550 70.827600 -9.965250
78.827250 70.909475 -9.464300
70.718500 67.927305 -8.684750
68.995050 61.908250 -8.453300
68.110850 60.367400 -8.509450
65.394250 64.683200 -51.383000
71.063850 59.240450 -39.145900
29.198150 54.705100 -70.001000
71.628350 88.401200 -9.492050
72.331900 86.939550 -9.731650
15.566750 76.695150 -40.840500
28.819750 60.211300 -65.703500
28.444100 42.745250 -77.520500
13.771350 85.647250 -49.737000
21.050500 66.600370 -52.223000
25.648700 65.536250 -50.748500
82.809550 75.172800 -10.654650
82.482200 73.624040 -10.645650
81.781250 72.135220 -10.567750
81.041650 71.138855 -10.480450
79.542900 69.692842 -10.388950
78.350050 69.537609 -9.990550
35.944100 75.199300 -58.170500
71.470650 67.609085 -9.376650
70.912350 66.155670 -9.749600
70.123900 64.652100 -9.282600
69.974400 63.051600 -9.552950
69.715650 61.898200 -9.597350
69.329200 60.766350 -9.736100
68.814900 60.644450 -9.147050
67.743200 59.620650 -9.029050
66.598300 59.141550 -8.464550
54.685100 54.347300 -38.275600
15.229950 88.353250 -46.493000
28.825000 51.697650 -68.799000
46.067350 58.581050 -42.209000
13.023550 79.648900 -49.378000
71.912400 89.145000 -10.244050
72.360150 88.148900 -10.283350
15.101600 75.102050 -46.435500
23.935500 63.526550 -61.927000
35.516150 79.692700 -58.154500
28.408900 41.094300 -79.004500
28.865650 61.711550 -65.711000
29.289150 41.203700 -75.873000
18.191200 69.204565 -56.837500
84.034350 78.048200 -11.466100
84.114350 76.511200 -11.392350
84.360500 75.114300 -11.555250
84.021900 73.622925 -11.532350
83.609800 72.639165 -11.516250
83.086200 71.890020 -11.432450
82.387150 70.710705 -11.665400
81.281150 70.404298 -11.230850
79.925950 69.105205 -11.148900
74.078100 61.659600 -40.843000
16.342350 70.707135 -55.494000
72.562950 67.868120 -9.796300
70.605700 64.649400 -10.058950
70.343450 63.653550 -10.035150
68.115450 59.256850 -10.007750
63.679165 64.662350 -51.577000
15.603700 81.060850 -37.818050
14.138450 73.903910 -49.667500
14.536700 73.155530 -49.654500
28.706800 45.703500 -74.303500
55.016740 55.722450 -77.595500
35.375300 73.700150 -59.687500
29.266950 39.636350 -77.440500
22.818900 83.705250 -24.928600
35.248700 81.179150 -57.853500
20.364250 86.000450 -43.882500
85.793100 78.104900 -12.707400
85.855550 76.605350 -12.646000
85.836600 75.107000 -12.732050
85.488700 73.612165 -12.713050
84.510350 72.125305 -12.267450
84.366750 70.783280 -12.813350
83.103950 70.447254 -12.212150
76.127300 62.712050 -39.367150
43.133700 62.957550 -48.262000
75.090500 62.273650 -40.736500
72.699750 66.530050 -11.443500
71.516300 65.894650 -10.880750
71.160350 64.537350 -11.099800
70.910150 63.245950 -11.090350
70.742450 62.041500 -11.213200
70.048900 60.652350 -10.732500
69.508550 59.320200 -11.283600
68.362700 58.729350 -11.092250
51.931200 54.571250 -38.044550
28.775900 58.961000 -65.694000
28.221900 47.259750 -74.571500
28.571200 47.201200 -70.358500
39.871450 64.455300 -74.435000
16.308800 81.170600 -46.024000
18.022600 94.103500 -48.148500
15.926750 80.165950 -45.934500
24.111800 50.041850 -68.749000
35.719600 73.703260 -58.154000
43.112200 69.090590 -66.212000
86.505100 76.601800 -13.149100
85.499350 72.123455 -13.079900
82.902750 69.270900 -12.878400
75.425600 62.200450 -39.232350
72.545450 60.788750 -40.794500
59.375860 63.898450 -50.464000
71.970350 65.150815 -11.662700
70.519100 60.638100 -11.490250
68.553200 61.317250 -43.992000
43.191950 54.573850 -7.969800
25.488700 84.010450 -23.321600
22.393100 59.056650 -66.013500
18.005750 70.638395 -59.848000
13.683400 85.638950 -51.087000
29.059750 54.704500 -70.781000
53.444650 62.012800 -71.553000
29.157450 42.453950 -75.480500
16.901850 89.753500 -45.596500
34.039150 79.690750 -61.189000
54.916700 59.204150 -73.277000
87.262600 79.601750 -14.257050
87.475700 78.199100 -14.208900
87.333600 76.598700 -13.922450
87.382150 74.977055 -14.131300
87.234950 73.603220 -14.282000
86.281550 72.111780 -13.831000
85.760450 70.638055 -14.152950
84.941400 70.153505 -13.734250
84.193900 69.176355 -13.930700
83.206600 68.641360 -13.602700
59.183075 61.659150 -48.344500
73.981550 66.355625 -12.664700
73.012900 64.658300 -12.533350
72.318750 63.408400 -12.455800
71.263800 62.115850 -12.232750
70.813600 60.613950 -12.582850
69.617800 59.015050 -12.622750
75.499100 61.738150 -37.955750
85.867150 70.981455 -24.442850
87.309250 69.234745 -20.157050
48.935300 59.015000 -43.725000
28.573150 59.154250 -70.372000
31.426800 88.085250 -23.589950
27.957150 45.574450 -69.106500
33.007100 82.703700 -64.267500
35.340550 70.599340 -56.841000
36.657050 73.855040 -56.341000
35.288650 73.699505 -61.221000
44.528000 59.554200 -43.303500
28.206400 48.661250 -68.690000
41.591850 69.131485 -65.345000
28.842450 63.211500 -65.713500
88.012500 77.595200 -14.695800
88.069500 76.595250 -14.699600
88.022750 75.346750 -14.706800
87.145500 72.113770 -14.631500
86.574800 71.127755 -14.579350
85.236100 69.657543 -14.459000
83.603400 68.168705 -14.359300
75.275800 66.796715 -12.998600
73.900850 64.646700 -13.302450
73.436700 63.154600 -13.278200
72.803700 61.930500 -13.248550
62.050315 62.116800 -49.297500
51.805850 58.115350 -40.544500
59.263985 52.987100 -36.347100
47.428900 59.189700 -43.761500
14.254000 73.883555 -53.741500
28.908750 56.206550 -70.787000
28.926900 44.205250 -74.303500
55.647020 57.178450 -75.825500
15.318650 76.583050 -65.399500
27.918150 47.250550 -68.639000
33.654500 81.203650 -61.194000
17.517250 68.879560 -38.102150
26.915100 85.366600 -23.238450
27.521950 45.787900 -68.216000
20.940350 92.465600 -45.358500
12.900400 78.394550 -50.052000
88.518250 79.594050 -15.789650
88.751100 78.092400 -15.814250
88.837100 76.592050 -15.814750
88.744100 75.092250 -15.815950
88.460850 73.596260 -15.790600
88.151050 72.429710 -15.874250
87.683750 71.768425 -15.595900
87.105800 70.713000 -15.730550
86.396250 70.128954 -15.251600
85.750400 69.232165 -15.602000
84.830650 68.648325 -15.095600
84.074900 67.915550 -15.506300
44.607900 66.211925 -50.794000
65.180500 59.074500 -40.647000
74.532700 59.744150 -35.110850
75.438200 66.085890 -14.403050
74.523650 64.632550 -14.047600
74.353900 63.298650 -14.269700
74.080400 62.137600 -14.374600
72.809850 60.472600 -14.277100
71.447550 60.080100 -13.732650
76.995600 63.335150 -39.273900
54.915650 63.147500 -49.789000
53.517800 63.300500 -49.663000
56.331505 53.266750 -37.395850
80.368500 66.014160 -36.595350
28.797000 51.704150 -71.957000
24.440650 80.317900 -22.124600
36.192650 73.706195 -57.005500
15.748150 84.174050 -47.112500
29.503600 67.992180 -62.700500
35.111900 70.960130 -57.746500
72.063750 67.992815 -50.315500
40.371050 55.212250 -6.925650
75.132850 64.635550 -14.843400
74.792500 63.627050 -14.779550
73.652350 60.902850 -14.708400
75.387000 66.407180 -46.456500
49.065800 64.507300 -49.988000
50.400500 63.769150 -49.256500
72.612800 64.623600 -46.815500
56.163950 57.381950 -8.341000
33.036450 62.349800 -47.677000
71.169400 69.244770 -51.500500
55.644650 56.367800 -77.090500
15.164800 89.873200 -46.684000
33.576050 82.207300 -60.812500
34.386200 82.676500 -58.292000
25.478100 67.876345 -7.119000
26.869300 64.918700 -61.260000
33.170250 81.119150 -65.874500
23.982100 50.046700 -67.354000
34.666000 70.588750 -58.310500
17.399800 91.728050 -45.943500
89.168850 79.690800 -17.183800
89.270800 78.090800 -16.911400
89.368450 76.589100 -16.918100
89.274450 74.962325 -17.085850
89.030150 73.586830 -17.233450
88.476000 72.091365 -17.181650
87.518550 70.504170 -17.024650
86.851350 69.443700 -17.143750
86.121550 68.782500 -16.833650
57.455670 61.248700 -47.337000
14.677700 73.317780 -48.183500
76.734650 66.294205 -15.701050
76.070650 65.648950 -15.659400
75.733900 64.626650 -15.782950
75.425050 63.522500 -15.991350
74.906300 62.227700 -15.948000
74.521900 61.623400 -15.482100
74.094150 60.621000 -15.798050
72.669850 59.295900 -15.576650
51.995800 64.462100 -50.002500
76.624250 66.562855 -45.151500
73.902750 63.202150 -43.733000
84.260500 71.022500 -24.395700
57.344135 58.015700 -40.019500
46.017200 67.537510 -51.416500
28.794150 45.704700 -71.941000
29.777750 86.879300 -23.079300
40.230900 70.700215 -64.743000
21.204150 85.232850 -27.862850
55.697100 56.588600 -76.322000
33.466050 83.196000 -60.026500
89.416550 79.090900 -17.619600
89.532250 78.089450 -17.629950
89.615100 76.586650 -17.633050
89.540400 75.337400 -17.634600
88.004200 71.085350 -17.477450
53.103350 65.896255 -51.245500
53.497750 61.934450 -48.117000
14.062150 73.889365 -51.017000
77.276700 65.928820 -16.852150
76.303500 65.115540 -16.353800
73.364300 59.621700 -16.086550
51.840150 63.413700 -49.370000
44.429350 60.184550 -44.038500
63.705025 61.584450 -48.392000
53.455000 65.027915 -50.780500
28.102150 57.693000 -71.673500
22.278100 84.251350 -25.689450
19.336100 67.605330 -42.036000
89.653000 79.590600 -18.682550
89.907200 78.087050 -18.704450
90.017700 76.584500 -18.714000
89.915850 75.083500 -18.706650
89.608150 73.687435 -18.752250
89.264000 73.085225 -18.296400
88.992100 72.091315 -18.620300
88.260000 70.842885 -18.549500
87.770300 70.099433 -18.504150
87.019700 69.046940 -18.779850
86.449300 68.637345 -18.037500
69.466750 62.439250 -46.377500
78.181700 66.614090 -17.019850
76.683050 64.535950 -17.401650
75.888300 63.286500 -17.261150
75.223800 62.112700 -17.316950
74.272550 60.607550 -17.230900
73.285300 59.636550 -16.790300
47.526500 67.528295 -51.502500
48.958600 67.931680 -51.952000
63.749690 62.419400 -49.474500
72.417100 57.763000 -31.882700
41.716250 62.303650 -47.836000
56.108045 66.020515 -52.799000
13.765550 75.130050 -53.755500
28.731800 48.701550 -70.370000
20.738450 85.654850 -28.800350
17.932200 79.711350 -29.095300
15.948400 73.213040 -37.423000
34.794850 81.241250 -58.459500
33.318100 79.997550 -65.863500
89.462750 80.584600 -19.019150
45.807950 55.111050 -8.467700
28.142800 64.508450 -47.937000
12.881200 82.141500 -51.418000
78.518950 66.311815 -18.405200
77.430900 64.657000 -18.277050
76.442550 63.642900 -17.806100
72.771050 59.200200 -17.062300
72.042200 58.116800 -17.371300
50.465650 52.156700 -35.993200
50.614650 64.586800 -49.904500
16.995100 70.949725 -58.387000
52.081300 59.269800 -43.680000
50.460900 52.887950 -36.748600
16.429450 91.369850 -46.304000
14.439000 90.526350 -47.733000
33.695550 79.695100 -62.733000
35.442500 76.697750 -59.690000
34.623000 78.194750 -61.208000
46.057450 95.503300 -7.525100
22.503600 91.474050 -44.924000
80.326550 82.915150 -39.753750
89.903600 79.590350 -20.090750
90.221100 78.086800 -20.117650
90.372950 76.582200 -20.130750
90.323300 75.078800 -20.125400
89.966550 73.577785 -20.099850
89.577200 72.410480 -20.172150
89.227700 71.759040 -19.911450
88.400500 70.584250 -19.948950
34.055950 60.163000 -42.438000
78.004300 64.736100 -19.078150
76.994000 63.394700 -18.914350
75.559300 62.021100 -18.692600
74.242250 60.508500 -18.566800
73.432750 59.450950 -18.680100
72.795750 58.787450 -18.386800
72.221950 57.867050 -18.461100
65.150650 55.482700 -36.771000
72.214750 62.302300 -43.524000
50.538300 66.170605 -51.241500
42.973350 60.086600 -43.802500
26.598950 61.262800 -35.459550
18.043900 72.081135 -62.646000
28.840050 50.203750 -71.957000
29.079300 43.202700 -74.299000
17.197900 69.546800 -37.897550
63.653065 66.132765 -52.722500
34.453600 65.570860 -51.930000
28.462900 64.762050 -62.639000
15.124050 87.098550 -58.619000
14.190900 79.791700 -47.099500
34.036450 87.374300 -22.411650
14.557950 82.709000 -61.180500
14.676750 73.477455 -55.551000
79.905450 67.592265 -19.936750
79.366650 66.223265 -20.316550
78.953350 65.799710 -19.681500
76.572200 62.639400 -19.222050
74.798200 61.086300 -19.023650
75.792100 64.716150 -43.917500
73.688200 59.496350 -36.138150
13.241200 76.650250 -49.701500
21.181000 88.195750 -44.183500
25.751850 41.584100 -77.265500
29.200900 42.457350 -74.300500
29.150250 56.206050 -70.002000
66.507600 63.893050 -50.415000
28.828200 44.205800 -71.937000
72.752250 66.094045 -48.218500
23.258850 78.033050 -22.454700
29.023350 53.077700 -68.613000
17.514400 84.602050 -45.953000
24.129700 85.341900 -24.874800
46.203400 96.346950 -7.839350
89.999250 79.589750 -21.484850
90.346950 78.084900 -21.514150
90.467300 76.579250 -21.525250
90.421100 75.070950 -21.517100
90.029850 73.571425 -21.484450
89.585350 72.397440 -21.329700
89.221150 71.740185 -21.528000
88.365700 70.780340 -21.506900
21.263500 65.079915 -40.645000
20.110350 66.699920 -41.929000
31.296650 67.401250 -58.406000
78.568450 64.624950 -20.277000
77.980200 63.775850 -20.508750
77.374500 63.103600 -20.333150
76.762200 62.216800 -20.353000
75.898650 61.429850 -19.885850
75.356950 60.770550 -20.265850
74.521250 60.099900 -20.071350
73.837600 59.197750 -20.085200
73.200900 58.589900 -19.598750
72.392000 57.844950 -20.176850
69.284200 66.371880 -50.894500
35.772100 61.651500 -46.576000
70.550550 66.803890 -50.488500
29.073100 60.209700 -66.878000
28.982600 67.195060 -63.012000
81.493300 68.842545 -21.584300
31.166350 92.517350 -7.508200
22.600900 85.425700 -26.183700
24.064350 78.089450 -21.728950
19.631550 80.977150 -27.471900
33.986100 69.649799 -58.289500
19.765700 69.337655 -62.610000
15.943000 73.224105 -36.065550
80.132300 67.377180 -21.299600
79.851550 66.188380 -21.824550
79.126100 65.119100 -20.854750
85.819250 69.630209 -22.816300
13.520400 87.147100 -49.751000
25.765350 44.348750 -67.519000
31.678350 86.247650 -22.118750
28.783950 47.206550 -73.133000
28.835350 57.707550 -70.396500
21.018200 78.263750 -24.675900
29.133450 59.707900 -68.434000
20.450350 82.705050 -27.045750
18.162550 85.514950 -45.563500
90.318000 78.083000 -22.899800
90.399600 76.576850 -22.906300
90.209900 75.070850 -22.890450
89.780200 73.569545 -22.851550
89.472300 72.570600 -22.476150
89.120350 71.984715 -23.024000
88.439350 71.056740 -23.013250
16.816000 73.850180 -62.671000
17.523750 73.088020 -62.657000
13.558100 76.656850 -48.349000
79.350650 65.116565 -21.928050
78.848400 64.441000 -21.759600
78.188850 63.609550 -21.993900
77.522800 63.086150 -21.397700
76.973550 62.093650 -21.703350
76.278000 61.112700 -21.648000
75.433250 60.469800 -21.461350
73.804900 59.246300 -21.477450
14.872300 81.098600 -58.590500
15.049050 87.107700 -56.901000
14.028750 78.135650 -47.044000
69.710300 58.763150 -39.171800
12.873700 79.876300 -53.455500
29.077000 58.960850 -66.874500
75.651250 60.134900 -33.344650
22.174150 87.348300 -28.941500
22.497200 94.332750 -46.365000
39.548550 71.711505 -64.733500
22.114550 64.927150 -65.879000
34.716450 79.789600 -59.739500
20.487450 68.591775 -62.597500
80.481950 67.279630 -22.616150
74.467500 59.915550 -21.888800
19.052400 70.254269 -62.738000
18.816250 71.087290 -63.665500
40.229000 63.510250 -49.550000
20.952350 67.412740 -59.569000
24.352000 41.785450 -80.346000
66.628800 60.822950 -45.221500
57.934010 65.962850 -52.831000
50.130850 59.333900 -44.449000
28.845250 45.704650 -73.125000
42.921050 94.259750 -8.410550
20.865650 47.228050 -77.464000
29.935850 92.191800 -7.579550
16.443950 82.473150 -46.321000
71.022450 57.436500 -33.477700
14.753650 83.956150 -61.266000
25.364100 88.750650 -27.232000
21.896200 78.125250 -24.033550
89.663050 79.466950 -24.062350
89.801300 78.063750 -24.567350
89.918000 76.588600 -24.582950
89.785450 75.126550 -24.500550
89.590500 73.898875 -24.112300
89.096850 73.475220 -24.761750
88.625950 72.434790 -24.565200
25.408750 44.264450 -71.545000
22.802050 65.166750 -62.616000
13.734700 89.743050 -52.501500
41.560050 59.993950 -43.905000
14.737950 82.574150 -47.668500
81.524950 69.220710 -22.862450
80.769750 67.743320 -23.197150
80.260850 66.113020 -23.414600
79.553150 64.711900 -23.419300
79.058600 64.122150 -22.957100
78.523950 63.368150 -23.259300
77.205550 62.000400 -23.067350
76.430150 61.117350 -23.073000
75.876200 60.636600 -23.025600
74.471250 60.021900 -22.893500
73.813700 59.371300 -22.839050
72.991400 58.542250 -23.088200
28.276700 39.271750 -77.401500
24.464500 47.043650 -67.331500
14.134750 89.532050 -53.752500
13.435650 88.396250 -49.758500
14.057750 75.182100 -55.382000
25.777250 43.009950 -70.125000
23.489500 79.617850 -22.703450
54.966300 61.912900 -48.036500
21.898400 85.781750 -27.385600
25.493150 54.584150 -63.873500
15.440550 82.524300 -47.094000
35.081300 79.189700 -59.285500
23.867800 84.157200 -24.372800
15.450300 75.205450 -39.486050
59.351175 59.914600 -45.530500
22.870800 57.501500 -64.594500
81.504200 69.074060 -24.499100
81.082950 67.669470 -24.626250
77.879350 62.597000 -23.549500
31.311300 66.352200 -52.477000
69.432200 59.096650 -40.615000
44.577050 63.106100 -48.493000
72.974200 69.223270 -50.240500
35.376050 67.439045 -71.664500
34.588700 68.071205 -71.321000
20.963400 51.645850 -73.147500
29.139500 60.209600 -67.657500
23.783850 95.330450 -47.046500
29.804200 80.960950 -20.141500
51.898150 59.064850 -83.256000
43.150800 66.254700 -51.118500
80.748850 66.439090 -24.975800
80.364500 65.774515 -24.708050
79.879000 64.850950 -24.780500
79.397200 64.103500 -24.738950
78.697500 63.353600 -24.679900
77.946800 62.593000 -24.615250
77.224250 61.850200 -24.552100
76.423900 61.122000 -24.483200
75.353500 60.344950 -24.385400
73.947600 58.864000 -24.389100
56.275915 58.007300 -40.404500
22.471750 52.890750 -71.385000
13.668250 84.127650 -53.809500
25.380250 91.559850 -45.629000
44.653750 54.957950 -9.856550
40.085900 69.227585 -64.600500
26.894000 90.698400 -29.350050
18.194650 91.309450 -45.578500
16.119900 74.851130 -59.919500
22.945550 56.139300 -68.849500
80.499200 70.088360 -41.401500
16.624450 78.181400 -43.522000
81.814200 69.176705 -26.206800
74.803100 59.624550 -24.695600
66.622000 64.849900 -51.116500
16.984950 73.693080 -61.213500
16.863950 69.214215 -53.922500
28.941100 44.205450 -73.121500
40.407800 64.611150 -51.152000
22.425600 88.484750 -43.733500
23.360000 54.442600 -68.704000
21.720850 65.565220 -64.312500
13.772400 87.132300 -52.448000
82.349350 70.573400 -26.085900
81.344650 67.603240 -26.313200
80.805150 66.356045 -26.265350
80.363300 65.615020 -26.227700
79.725450 64.704950 -26.244150
79.323850 64.110850 -25.787400
78.373100 63.345400 -26.060850
77.758450 62.591350 -25.657450
77.190750 62.000000 -26.028800
76.468050 61.109450 -25.895850
75.732050 60.364500 -25.832050
75.075650 59.604750 -25.773000
74.300400 58.741750 -26.018450
66.499950 54.919650 -34.793850
47.231100 64.754700 -49.930500
25.269700 85.462650 -24.215050
19.852750 85.374100 -43.372500
23.981250 93.006000 -45.654000
29.217200 40.952900 -77.059000
44.417900 61.826700 -75.956000
15.012300 88.606900 -56.906500
27.788550 49.078350 -67.633500
82.265800 80.980750 -34.750150
54.611650 55.914100 -80.471500
82.975750 72.030800 -27.514100
82.575700 70.674255 -27.673100
68.007400 55.992350 -34.848350
53.514600 66.647940 -52.176500
34.650350 78.145100 -17.423300
40.069600 63.996400 -50.510500
16.942750 72.398065 -45.830500
20.819900 84.037050 -27.409400
29.057350 59.207550 -69.218500
19.422100 86.802450 -44.873000
14.747300 78.099500 -58.574000
22.606550 78.145950 -23.317600
83.244050 73.580990 -27.580450
82.190800 69.351060 -27.789100
81.872600 68.602925 -27.762000
81.388500 67.601455 -27.719700
80.884550 66.624795 -27.675100
80.359000 65.856810 -27.631650
79.609900 64.848000 -27.569850
78.404450 63.611350 -27.467250
77.206950 62.110850 -27.368150
76.327600 60.857400 -27.292300
75.837150 60.130800 -27.254950
75.120400 59.392850 -27.467250
41.720650 65.134685 -50.868000
19.075400 67.213395 -40.616000
35.932650 66.559750 -69.929500
74.106350 67.562650 -48.412500
29.045250 42.953700 -73.119000
81.885350 73.583880 -39.367850
30.053300 82.239900 -20.654950
19.931350 82.564550 -27.767600
54.624550 55.217850 -79.926500
25.762350 43.242050 -68.749000
27.259950 86.516300 -23.769400
83.361550 76.422750 -27.659550
83.304100 75.028850 -27.797750
18.239850 67.712195 -37.942800
47.861100 62.097100 -81.665500
18.469950 67.954955 -40.651500
58.059100 57.635400 -39.822800
29.159850 42.203850 -73.117500
41.502400 58.793000 -39.092750
14.296450 80.581150 -61.341000
24.893950 45.338600 -72.839000
13.767150 81.177300 -48.212000
82.044100 81.581350 -35.158500
23.377600 64.527550 -62.081500
53.437150 53.225450 -37.418800
46.922250 67.156485 -67.900500
23.634800 42.494900 -79.247500
71.082400 66.248770 -49.774000
24.190950 49.026450 -64.952000
83.213200 75.091650 -29.278750
83.135650 73.593335 -29.271500
82.958550 72.097320 -29.256150
82.655600 70.601185 -29.229600
82.313650 69.357080 -29.200650
81.987000 68.606510 -29.172800
81.438250 67.614055 -29.128150
80.839450 66.612900 -29.079150
80.283300 65.864660 -29.033650
79.536750 64.718950 -29.045850
78.541850 63.504950 -28.816350
77.941050 62.622550 -28.843100
77.254650 61.874950 -28.785950
76.544950 60.858100 -28.719900
75.857000 60.055500 -28.894300
75.242450 59.551650 -28.814500
24.502600 47.119050 -71.624000
15.557400 75.103550 -58.550000
47.807550 60.669350 -80.193000
17.590350 70.592260 -42.138500
29.224600 41.444950 -73.106000
23.899250 57.455900 -63.780500
36.382200 75.106800 -57.084500
40.074600 59.038950 -39.276700
62.579540 54.050250 -36.680950
15.153600 72.143050 -52.345000
36.013850 72.206515 -62.232000
34.332650 66.280780 -52.483000
17.814900 69.201140 -40.693500
22.407550 62.065600 -64.288000
13.506900 84.135500 -52.437500
15.385300 79.707300 -37.822350
14.505000 81.332250 -61.344500
17.445600 70.195560 -41.057500
61.956590 64.554600 -51.462000
28.033900 53.301800 -73.116000
26.752500 84.181550 -22.696600
34.900750 78.699400 -60.066000
83.016800 78.086050 -30.664400
83.095350 76.587100 -30.669850
83.173500 75.088650 -30.675850
83.122350 73.591960 -30.670200
82.942800 72.097205 -30.652750
82.597150 70.599625 -30.622500
82.220800 69.436650 -30.474550
81.923200 68.770665 -30.691800
81.459250 67.605760 -30.532500
80.844950 66.364965 -30.486800
80.445800 65.613095 -30.457850
80.100100 64.863850 -30.428700
79.487650 63.722850 -30.452800
78.855850 63.124550 -29.979700
78.319100 62.239850 -30.362600
77.506400 61.642850 -29.872400
76.891900 60.825550 -30.339050
75.574600 60.066000 -30.415400
17.860800 71.988005 -61.330500
24.763450 46.708650 -68.847000
21.812750 66.297170 -65.364000
25.011800 45.520050 -71.549000
21.413700 53.268400 -71.916500
20.578550 68.582510 -46.362500
19.553650 69.108885 -46.546000
28.566200 60.890300 -38.032000
28.113000 51.827550 -73.350000
21.521000 83.865150 -26.260100
26.778700 44.233700 -67.598500
25.304150 65.055610 -61.042000
41.718400 58.795450 -13.342350
25.313900 44.278500 -68.709500
19.001950 70.252508 -61.356000
21.354700 67.827280 -62.588000
21.376450 58.933750 -71.856000
60.721690 64.524350 -51.273000
28.341950 50.326300 -73.259500
27.363750 80.440000 -20.654200
34.925750 71.688290 -60.821000
82.195050 82.332050 -32.007700
82.545150 81.082550 -32.033450
82.762600 79.585500 -32.047450
82.871300 78.085050 -32.054050
82.966550 76.584950 -32.060250
83.062900 75.086400 -32.066450
83.027450 73.591210 -32.062650
82.781450 72.096160 -32.041050
82.370800 70.603230 -32.004050
82.123500 69.429955 -32.107850
81.951800 68.760360 -31.857750
77.107900 60.808850 -31.918050
32.736550 66.562655 -52.430000
59.188895 56.069400 -39.033700
37.252000 64.522950 -51.457500
33.839800 89.398500 -25.142550
41.783750 73.597490 -53.927000
40.163600 75.216150 -54.259000
18.150750 76.621900 -66.960000
25.511100 74.944445 -67.928500
23.070200 63.822300 -62.896500
44.347100 80.814600 -51.953500
27.815550 40.244500 -79.857500
27.018050 40.180350 -79.997500
36.956900 80.909900 -55.315000
35.501300 82.307500 -56.991500
26.900200 41.301150 -80.231000
41.456700 82.232050 -52.054000
28.000050 42.351950 -78.698500
27.608400 41.972600 -79.501500
37.646650 72.057440 -54.671000
36.726600 71.147200 -54.975000
27.236400 43.041700 -79.036500
26.525950 42.487500 -80.067000
17.006300 76.600600 -66.508500
25.347450 42.971450 -80.430000
23.888600 42.617550 -80.461000
27.355250 44.487100 -77.748500
26.578050 44.056550 -78.863500
25.351150 43.804850 -79.927000
21.305850 59.165900 -68.974000
28.372200 79.470750 -68.054000
34.849700 83.164650 -57.459000
21.065150 88.229150 -65.292000
25.479100 44.529000 -79.351500
23.942300 44.276450 -80.178500
38.561950 82.687850 -51.337500
23.925950 87.122000 -66.387500
38.908700 73.644070 -54.490500
38.163650 73.854975 -54.794500
37.322250 73.492105 -55.346000
17.526150 74.949280 -66.325500
21.238000 85.237600 -66.799500
29.281000 76.894850 -67.979500
36.853100 71.370690 -73.551500
27.474250 45.894850 -76.556500
26.840800 45.673350 -77.408000
26.333500 45.132250 -78.300000
25.355700 45.618600 -78.646000
22.826850 44.199100 -79.991000
69.547750 83.780650 -52.109000
22.637050 78.244150 -68.076000
72.609900 59.009200 -36.279800
43.096700 82.591550 -51.447500
23.378900 54.546500 -67.380500
24.193600 48.546400 -67.345000
35.966600 81.004550 -56.951000
51.678750 94.900200 -38.503100
26.937550 76.787250 -68.039000
20.690750 85.997650 -66.347500
18.225400 75.185700 -66.697500
26.450450 67.750515 -68.091000
54.253300 55.852600 -81.275500
57.803990 63.854900 -50.499000
25.027000 62.378800 -61.981000
18.044300 79.517200 -67.043500
25.913500 46.180750 -77.875500
23.977200 45.716800 -79.293000
25.263500 67.061940 -69.441000
53.409150 95.490400 -38.712350
45.987800 83.646500 -50.326500
22.374350 86.567200 -66.509500
41.676900 80.945450 -52.661500
24.060950 65.899645 -49.344000
22.711700 80.992050 -67.997000
19.265050 72.087220 -66.108500
22.803800 66.095785 -69.557500
38.462700 79.234450 -53.608500
50.467600 78.152950 -53.852500
39.095950 81.886250 -51.934000
27.701350 47.058600 -75.592000
27.060450 47.314900 -76.205500
26.576550 46.658850 -77.058000
22.873350 45.328750 -79.770000
22.317450 45.817900 -79.322000
21.456000 44.710900 -79.128500
49.205400 77.894400 -53.449000
16.504000 75.026750 -65.579000
28.653500 87.279550 -66.231500
20.931000 75.171750 -67.557000
29.865000 84.005650 -67.286000
26.650550 82.314750 -68.015000
24.970350 87.474300 -66.292000
44.588650 81.394850 -51.517500
48.832450 79.845500 -52.836000
43.048800 81.819700 -51.919500
65.296250 82.630800 -54.477000
38.637200 81.096150 -52.380500
48.394600 78.214400 -53.119000
40.002850 79.227650 -53.392500
37.095350 58.983050 -34.580650
70.318900 83.553150 -51.940500
30.902750 72.023350 -69.044500
24.119050 72.213730 -67.808500
52.767850 57.327850 -82.768500
76.877150 63.555600 -40.608000
25.499850 47.298550 -77.478000
24.055100 46.822850 -78.554500
63.745385 84.826550 -53.525000
42.909350 77.915550 -53.393500
64.899345 82.002950 -54.784500
72.185400 66.334005 -49.074000
82.707750 69.761809 -22.770050
26.757250 86.591650 -66.716500
19.731350 73.646930 -66.882000
17.868100 73.431415 -65.842000
30.805450 85.454150 -66.674500
45.948100 76.673450 -52.849000
31.282050 79.547750 -67.588000
37.296650 81.042750 -53.830500
15.459450 75.203950 -63.983500
71.847950 84.921700 -50.343500
48.909300 66.282010 -51.149000
16.529300 73.694140 -42.135500
