ply
format ascii 1.0
comment zipper output
element vertex 1709
property float x
property float y
property float z
end_header
0.722087 3.689901 -1.640627
0.728139 3.760519 -1.640745
0.756472 3.842564 -1.624090
1.334432 3.110647 -0.387998
2.191394 2.459111 -1.563950
2.163554 2.499682 -1.582483
2.132986 2.532724 -1.559903
2.117017 2.580802 -1.577778
2.088948 2.651972 -1.579927
2.031705 2.712882 -1.578130
1.620443 2.997611 -0.335542
1.009651 3.005599 -1.651408
0.979432 3.047403 -1.650127
0.879868 3.146042 -1.659514
1.395767 2.972969 -2.216722
0.823026 3.447774 -2.906226
2.073274 2.700517 -1.597413
3.216005 3.118715 -2.418939
0.956828 3.074601 -1.670698
3.459672 2.952774 -2.040000
2.461764 2.521748 -1.765441
0.735281 3.425654 -2.227453
0.824608 3.308935 -2.709623
2.132059 2.592217 -1.627781
2.845941 2.899005 -2.288797
0.819764 3.307824 -2.256486
2.149156 2.683611 -0.636014
2.722567 2.636920 -1.842639
2.245333 3.006068 -2.321509
2.167531 3.049899 -2.346297
2.942794 2.627925 -1.801842
3.394729 2.808302 -1.821858
2.103651 2.941158 -2.253632
3.411243 2.803988 -1.780762
3.446172 2.820458 -1.787691
3.906366 3.247941 -1.017639
3.494323 2.848606 -1.783564
2.240651 2.974094 -2.289033
2.518936 2.630415 -1.831038
2.581698 2.456915 -1.702356
1.965637 2.898816 -2.204575
2.099557 2.649153 -0.597337
4.126087 3.387208 -1.173149
2.727461 2.914639 -2.265660
2.748867 2.820314 -2.164363
3.207870 2.775962 -1.910024
2.376656 2.862816 -2.196439
2.931192 3.108276 -2.484292
3.201283 3.069375 -2.391958
3.804580 3.210623 -1.031340
3.073427 2.702151 -1.805434
2.327059 2.799005 -2.096439
3.402844 3.013264 -2.181462
3.549460 2.877368 -1.756507
3.579300 2.893026 -1.741927
3.628564 2.920965 -1.715620
2.202604 2.610156 -0.478408
2.997696 2.832708 -2.143160
2.653765 2.922991 -2.272052
3.144257 2.770724 -1.907571
3.287370 2.927863 -2.129410
3.080495 2.969163 -2.353986
4.049941 3.314548 -1.116465
3.113491 2.873215 -2.180283
3.634368 3.116234 -2.071392
2.873305 2.750182 -1.875358
1.991722 2.677474 -0.592300
1.755568 2.980002 -2.352594
3.658981 2.959017 -1.724307
3.677250 2.949995 -1.688264
3.712936 2.969304 -1.647677
1.413719 3.001981 -2.268042
3.214104 3.002880 -2.322382
3.547703 3.064375 -2.124458
2.093217 2.584509 -0.393425
4.042759 3.213247 -0.942644
2.800011 3.081311 -2.449623
1.408644 3.084760 -0.398759
2.701442 2.815542 -2.168892
2.447875 2.923828 -2.267948
3.522479 3.241899 -2.298160
1.476462 3.040547 -2.343679
1.678387 3.028590 -0.474210
3.151427 2.989392 -2.344363
2.870570 2.570314 -1.777953
2.385358 2.737151 -1.908443
3.353083 2.688443 -1.514349
1.476575 3.006920 -2.307689
3.419653 2.719307 -1.444983
2.047165 2.936571 -2.247099
4.102358 3.279697 -1.019311
3.009251 2.572554 -1.718257
2.162005 2.905123 -2.197995
2.033448 2.656880 -0.589057
3.436399 2.761698 -1.029151
2.032901 2.622413 -0.550833
3.922663 3.401592 -1.231087
2.453998 2.419217 -1.640524
2.526625 2.390958 -1.562099
3.964491 3.419017 -1.210882
2.664326 2.815335 -2.169151
2.659708 2.891439 -2.230825
2.646027 2.847828 -2.195849
3.422608 2.994493 -2.127500
2.594040 2.417571 -1.584137
1.543387 3.109063 -2.435684
1.751274 2.871137 -2.119080
2.165505 2.975269 -2.288420
3.405363 2.733462 -1.008361
2.134861 2.934295 -3.713113
3.974436 3.316172 -1.114512
2.441476 2.664363 -0.403849
2.729406 2.756012 -1.918208
3.278149 2.649325 -1.516104
2.098177 2.589797 -0.343974
2.725945 2.948045 -2.310142
2.651799 2.946974 -2.311392
2.200165 2.879085 -3.718679
2.169052 3.017212 -3.265425
2.653407 2.565429 -1.804222
2.174988 2.658033 -0.323321
3.138078 3.137120 -2.460448
3.072467 2.651630 -1.768552
3.612425 3.207415 -2.184387
2.655408 2.650366 -1.850328
2.727807 3.043318 -2.419599
2.588469 3.015847 -2.380212
1.966575 3.008486 -2.325330
3.008117 2.771316 -1.870557
3.486910 3.014080 -2.114741
2.938868 2.971547 -2.363608
2.590000 2.645821 -1.844708
2.524835 2.951304 -2.308278
2.381132 2.967101 -2.294599
2.019993 2.963868 -3.592689
2.063229 2.951335 -3.634882
2.153243 2.896608 -3.664882
1.888769 2.903618 -2.200401
2.315292 2.974710 -2.288042
2.517483 2.646453 -3.856203
3.696649 2.995547 -1.712245
3.661571 3.032429 -1.921486
2.448274 2.658884 -1.826038
2.519342 2.737920 -1.920047
3.143637 2.932767 -2.265825
2.097495 2.617328 -0.556217
1.359481 1.842604 -3.592170
1.416321 3.143772 -0.536630
2.520101 2.421993 -1.643450
2.583033 2.861665 -2.192689
3.286958 2.693818 -1.643722
2.236401 2.905672 -2.197241
1.496413 3.149053 -0.585295
3.074125 3.007849 -2.394528
1.441099 3.351518 -3.211580
1.784432 3.089811 -3.425519
2.311627 2.869399 -2.181816
3.684759 3.060788 -1.921415
3.061041 3.082522 -2.446085
3.615351 3.069558 -2.048561
2.163026 2.600146 -0.339502
2.313302 2.629142 -1.781561
3.380936 3.170950 -2.363278
3.330509 2.942123 -2.116014
2.587743 2.732413 -1.914080
2.310448 2.730163 -1.847601
1.333936 3.343250 -3.154646
1.407568 3.336553 -3.162453
1.665620 3.166349 -3.323750
3.153880 3.097068 -2.432052
2.374226 2.717170 -1.837856
1.540467 3.036189 -0.397177
2.456396 2.716606 -1.855542
2.516314 2.708073 -1.860406
2.990702 2.792653 -1.908703
3.542594 3.009083 -2.049057
3.297042 2.678689 -1.585309
3.177045 2.886295 -2.146509
2.377368 2.646575 -0.396080
2.516592 2.870675 -2.184434
1.627618 3.020903 -2.382594
2.583012 2.710233 -1.867757
2.659580 2.704837 -1.873436
1.409099 3.077156 -0.334080
1.356507 3.080288 -0.326335
2.445658 2.862840 -2.191934
2.474788 2.953000 -2.306958
1.312889 3.294632 -3.138160
1.345170 3.304294 -3.128137
1.392800 3.309132 -3.122712
1.404342 3.289496 -3.097099
3.401274 2.740639 -1.617927
3.422483 2.905436 -1.990425
3.387672 2.880790 -1.975071
1.688856 2.935653 -2.255802
3.965130 3.247855 -1.029498
1.678210 2.782833 -1.851783
2.093920 2.601064 -0.522972
2.149047 2.605071 -0.523403
2.860990 2.842255 -2.213844
3.193392 2.882866 -2.105991
3.479887 2.864144 -1.840184
2.304946 2.903007 -2.221651
2.239410 2.615802 -0.400608
2.856157 2.700356 -1.855007
3.138594 2.756991 -1.846092
2.683192 2.750573 -1.918160
2.925757 2.711632 -1.844993
1.958691 2.619196 -0.480465
2.029623 2.606111 -0.518208
1.896623 2.987033 -0.659196
2.102802 2.898564 -2.204269
3.522757 2.964024 -2.006816
2.595139 2.895675 -2.227193
2.995903 2.721568 -1.835892
3.069932 2.892903 -2.227972
1.532316 3.039642 -2.366156
1.408545 3.259778 -3.032618
1.477106 3.263518 -3.025094
3.612604 2.872738 -1.649373
2.520476 2.454278 -1.704561
3.328915 2.807000 -1.911769
2.097656 2.688224 -0.630868
1.347691 4.126160 -1.131828
2.456087 3.193018 -2.469858
3.049989 2.734071 -1.831547
3.359580 2.968113 -2.140047
3.343915 3.012182 -2.248019
3.584844 3.111738 -2.141156
2.581590 2.696104 -0.400358
1.358323 3.238562 -3.057382
2.536243 2.743120 -1.970967
2.660245 3.078335 -2.464481
1.806278 2.886382 -2.149788
1.483759 2.931573 -2.203774
2.182776 2.616262 -0.544948
2.959740 2.906821 -2.302807
3.001134 3.077557 -2.451014
1.533248 3.105095 -0.546151
2.156559 2.819061 -2.077193
1.473672 3.078437 -0.451502
3.124679 2.948125 -2.307783
2.374731 3.195899 -2.458656
1.376366 3.217975 -3.010731
4.044217 3.246646 -1.019533
2.311252 2.941347 -2.256981
3.599703 2.936134 -1.768078
2.507205 3.029644 -2.368538
1.401462 3.110137 -0.469960
3.024631 2.680446 -1.807741
2.384620 2.644962 -1.805118
1.478705 3.113417 -0.525017
1.333686 3.129229 -0.328191
3.506637 2.834007 -1.722967
1.422953 3.241536 -2.968679
3.649349 2.890517 -1.609111
3.555608 2.857267 -1.708632
1.543627 3.083231 -0.518906
3.597804 2.884807 -1.705017
2.174500 2.649988 -0.602880
2.582559 2.829233 -2.156486
3.359033 2.691686 -0.945913
3.648297 2.904134 -1.656870
1.381521 1.843366 -3.590071
2.407413 2.665969 -1.819118
3.620250 2.865035 -1.577833
1.680858 3.013774 -2.388656
1.615160 3.033491 -0.454406
3.836974 3.179129 -0.891797
1.427467 3.238656 -2.926863
1.478559 3.245676 -2.899410
3.865035 3.307302 -1.167925
3.672559 3.078791 -1.981321
2.864339 2.927071 -2.317571
2.584896 2.744054 -1.969340
1.597531 2.964630 -2.301085
2.582877 2.395870 -1.509441
1.721425 4.268776 -1.204031
1.756757 3.077802 -2.461981
2.454677 2.623099 -1.815226
2.598681 3.085171 -2.448042
2.548542 3.021250 -2.375637
3.021437 2.973366 -2.372193
1.335191 3.151835 -0.503995
2.866563 2.767837 -1.914929
3.079441 2.768884 -0.390649
1.968302 3.038224 -2.364387
2.996134 2.595349 -1.754943
3.332792 2.745264 -1.702948
1.689642 2.993733 -0.324500
1.453205 3.216901 -2.875307
1.551080 3.270499 -2.876675
3.634524 3.049540 -2.001156
3.297849 3.113844 -2.372689
2.547274 2.410821 -1.609191
2.602462 2.402040 -1.504090
1.679524 3.083994 -2.456958
2.656062 2.480925 -1.725700
2.583005 2.476887 -1.729087
2.508660 2.475344 -1.730134
2.443868 2.492047 -1.736573
2.457198 2.456358 -1.702184
1.891255 2.639712 -0.331012
1.979851 2.606677 -0.467873
3.183502 3.146531 -2.451604
2.862609 3.079646 -2.450825
2.927733 3.074647 -2.454340
4.047276 3.411823 -1.205837
4.118368 3.418667 -1.199781
1.481354 3.202990 -2.829929
1.549552 3.261867 -2.823066
2.389599 2.534991 -1.763606
2.570795 2.396767 -1.560531
3.447559 2.759432 -1.572064
2.024434 2.710009 -0.624620
3.494292 2.770363 -1.372458
3.427910 2.720432 -1.378300
3.973134 3.199934 -0.949163
4.144064 3.310522 -0.982125
2.814152 2.482566 -1.656182
2.661579 2.607901 -1.830981
3.214851 2.620257 -1.577500
1.420821 3.175196 -2.833208
1.524875 3.229478 -2.806415
1.564101 3.260714 -2.766132
2.245670 2.738604 -1.904882
2.308403 2.735493 -1.905448
1.718292 3.394182 -2.637146
2.308913 2.639356 -0.351083
3.413917 2.737774 -1.568472
3.835047 3.207675 -0.943321
3.914200 3.200279 -0.947307
3.012552 2.545776 -1.665660
2.167533 2.605340 -0.480986
2.267127 2.452708 -1.634677
2.309983 2.443566 -1.644375
3.188297 2.606052 -1.582304
1.541550 3.052104 -0.326160
3.295955 2.885943 -2.014458
1.527425 3.219797 -2.753892
1.620370 3.264238 -2.688090
1.695818 3.328685 -2.621486
3.490158 2.777533 -1.439476
1.546960 3.051601 -0.456917
1.615408 3.016816 -0.388208
2.191884 2.609092 -0.416380
3.360271 2.697601 -1.007488
2.802320 2.533623 -1.767184
3.066094 2.590677 -1.702866
2.569005 3.095461 -2.439127
3.761481 3.175341 -0.878248
2.352038 2.678182 -1.806927
1.576889 3.235807 -2.713679
1.651887 3.288420 -2.666321
2.702059 2.467231 -1.693519
3.116745 2.607906 -1.698052
1.979026 2.579767 -0.338920
3.896307 3.174747 -0.893101
2.877546 2.626399 -1.814219
1.346429 3.023620 -2.248608
1.491663 3.180225 -2.694269
1.551986 3.202383 -2.678915
1.595005 3.227117 -2.678184
1.642302 3.254525 -2.624316
1.672882 3.278539 -2.602571
3.453460 2.747309 -1.473936
2.458389 2.679757 -0.361491
2.450078 3.341814 -2.530377
2.515958 3.332367 -2.546675
1.406726 4.028328 -1.044156
3.597896 3.294122 -2.250542
1.604476 3.215668 -2.618608
1.690450 3.264598 -2.567948
1.756568 3.261834 -2.550684
2.371439 3.326686 -2.504127
2.387448 3.349332 -2.515943
2.582920 3.266887 -2.543420
2.654325 3.271049 -2.560425
2.727244 3.265762 -2.568656
2.789505 3.255532 -2.568538
2.859182 3.257190 -2.570802
2.935059 3.254733 -2.571745
3.008162 3.258054 -2.567948
3.078330 3.267883 -2.558184
3.145592 3.263493 -2.534599
2.926357 2.823884 -2.143420
2.010021 3.144314 -2.443113
2.011821 3.074078 -2.375684
2.293396 2.554267 -1.743915
3.428528 2.961292 -2.076038
1.505644 3.167116 -2.631792
1.545276 3.179596 -2.614858
1.644366 3.238808 -2.580377
2.463887 3.295797 -2.519505
2.517262 3.268088 -2.526274
3.213830 3.286937 -2.518349
3.279321 3.271160 -2.476792
3.260325 2.673535 -1.635665
3.531672 3.090314 -2.175495
3.740870 3.202105 -1.962759
2.262764 2.868776 -2.164929
2.790872 2.942811 -2.314528
1.619512 3.193429 -2.543561
1.690788 3.197941 -2.534599
1.750757 3.205223 -2.536533
1.555488 3.016677 -0.344571
2.326781 2.466486 -1.690670
3.923696 3.384584 -1.186762
3.973526 3.386151 -1.185042
2.376748 3.263370 -2.484387
2.438495 3.255185 -2.495590
2.591231 3.210470 -2.525047
2.660940 3.203970 -2.538467
2.724131 3.191781 -2.540212
2.792498 3.196896 -2.538915
2.865972 3.198799 -2.536887
2.937712 3.196484 -2.542358
3.004658 3.196108 -2.537689
3.074212 3.206074 -2.527783
3.223059 3.252396 -2.495142
4.130366 3.308955 -1.030750
4.049012 3.385084 -1.186130
3.314495 2.753099 -1.739193
1.813521 3.185843 -2.521038
1.886255 3.209662 -2.515142
2.519408 3.200027 -2.496792
3.109830 3.198843 -2.512358
3.144243 3.194309 -2.494788
1.942910 2.609481 -0.416375
3.117210 2.673618 -1.770193
1.475682 3.049851 -0.324330
2.174585 2.708774 -0.665601
1.525333 3.160069 -2.519717
1.595267 3.170369 -2.511085
1.749165 3.161029 -2.517972
1.844797 3.169265 -2.509528
1.891943 3.175135 -2.502925
2.160809 3.240179 -2.441462
2.266250 3.228793 -2.450118
2.578700 3.168853 -2.502311
2.661286 3.151637 -2.516698
2.724891 3.148411 -2.519057
2.784868 3.153276 -2.514033
2.896656 3.153394 -2.512759
2.935636 3.149592 -2.515873
2.985761 3.149242 -2.515307
3.089849 3.166462 -2.498726
2.987063 2.803764 -0.339486
2.925325 2.793198 -0.337625
2.867759 2.775851 -0.339417
2.792854 2.742566 -0.348788
2.722222 2.734667 -0.347752
2.653503 2.725243 -0.348179
2.513300 2.710828 -0.339415
2.459896 2.715972 -0.328778
2.232146 2.622241 -0.353995
3.166528 2.822236 -0.376925
3.010877 2.753380 -0.388075
2.934369 2.735172 -0.397700
2.863575 2.723368 -0.398578
2.792803 2.715811 -0.399189
2.722070 2.710375 -0.399292
1.610443 2.783639 -1.861307
2.514170 2.683634 -0.398224
2.320708 2.631351 -0.406012
1.243755 4.062644 -1.132149
2.534495 2.733524 -3.525354
2.389807 2.810408 -3.531486
1.540590 2.800002 -1.863976
2.377873 2.784894 -3.584104
2.177575 2.869634 -3.583302
1.476611 2.832573 -1.865441
1.417790 2.856358 -1.863219
1.684578 3.172812 -3.140566
1.272392 3.136685 -0.326111
1.256050 3.195885 -0.321941
2.993292 2.742238 -0.414099
2.485578 2.673474 -0.419575
1.359531 2.876958 -1.861399
1.324373 2.891005 -1.860453
1.276858 2.910297 -1.859219
1.206408 2.935870 -1.857300
2.020568 3.038738 -3.233184
1.151425 2.950108 -1.850495
1.119851 2.968998 -1.860649
2.463627 2.733736 -3.590024
1.777528 3.084415 -3.299387
2.048514 3.023434 -3.251722
2.282901 2.818474 -3.740755
1.261309 3.138568 -0.383439
1.208675 3.185912 -0.395005
1.153771 3.284814 -0.345634
3.407031 3.281803 -0.393691
2.382236 2.868575 -3.440849
2.231724 2.900948 -3.434811
3.146535 2.770866 -0.462599
3.075762 2.755698 -0.463821
3.028510 2.750580 -0.464278
2.993074 2.743762 -0.464927
2.934009 2.732866 -0.465804
2.863195 2.719335 -0.466866
2.792462 2.707795 -0.467731
2.721744 2.697469 -0.468474
2.650983 2.690285 -0.468939
2.580200 2.682764 -0.469358
2.532858 2.678448 -0.452866
2.504651 2.668429 -0.473856
2.438420 2.650651 -0.472092
2.379460 2.635453 -0.473363
2.320597 2.623521 -0.474233
2.249854 2.615340 -0.474750
1.544738 4.357936 -0.352045
1.262651 3.091134 -2.587217
0.852441 3.241860 -2.326604
1.380189 3.100047 -0.405344
1.003453 3.145844 -2.601745
1.153024 3.286572 -0.383913
3.622684 3.335349 -0.419795
3.621509 3.273907 -0.453531
3.552467 3.255227 -0.448781
3.490196 3.259397 -0.427460
3.454410 3.242145 -0.431639
2.449486 2.847642 -3.443726
2.308127 2.870851 -3.461439
1.267175 3.116614 -2.819245
1.426741 3.089177 -0.440033
1.332462 3.127584 -0.452936
1.274035 3.150943 -0.450217
3.524434 3.227854 -0.470071
3.489408 3.219807 -0.469125
0.968297 3.170387 -2.600684
3.170146 2.752502 -0.515108
3.141443 2.733962 -0.537545
3.075361 2.728502 -0.534288
3.004576 2.730651 -0.533870
2.933870 2.726585 -0.533830
2.863165 2.719524 -0.534229
2.792358 2.709120 -0.535066
2.721658 2.695705 -0.535552
2.650700 2.689193 -0.536226
2.580014 2.684285 -0.536377
2.532936 2.678625 -0.537007
2.497481 2.668743 -0.537913
2.438462 2.653137 -0.539335
2.379342 2.637658 -0.540686
2.320366 2.627368 -0.541519
2.249585 2.621627 -0.541649
2.322816 2.807267 -3.589670
1.449811 3.094292 -0.473877
1.200295 3.036498 -2.129057
3.700818 3.240858 -0.504686
3.683014 3.213627 -0.533755
3.618422 3.207333 -0.525184
3.552295 3.197048 -0.522675
3.495406 3.177156 -0.531715
3.442033 3.174326 -0.509177
3.193767 2.743035 -0.550097
1.415821 3.108056 -2.465590
1.251658 2.959993 -2.011061
1.614375 3.062816 -0.529358
1.480835 2.876733 -2.060896
2.092816 3.013443 -3.260778
1.824101 3.055634 -3.370425
1.742186 3.106379 -3.299057
3.832083 3.295109 -0.547646
3.735651 3.222293 -0.541698
3.240116 2.751887 -0.601024
3.204908 2.735870 -0.602318
3.146101 2.715462 -0.603696
3.075075 2.704351 -0.604347
3.004347 2.696804 -0.604488
2.933760 2.694113 -0.586552
2.862837 2.681861 -0.587759
2.815853 2.679547 -0.586443
2.787110 2.635465 -0.613354
2.721073 2.635797 -0.593139
2.650350 2.626884 -0.593649
2.579597 2.636899 -0.592264
2.508875 2.642137 -0.590941
2.437972 2.632255 -0.608729
2.378979 2.641920 -0.607781
2.320071 2.644889 -0.607399
2.249401 2.648755 -0.606637
1.051406 4.497321 -2.230047
2.188861 2.744401 -1.901486
2.157460 2.751856 -1.912170
2.099410 2.766953 -1.918113
2.031467 2.778410 -1.921604
2.236314 2.839833 -3.653373
1.963755 2.791267 -1.924717
3.817969 3.248888 -0.573684
3.758920 3.196322 -0.596547
3.694592 3.181792 -0.588606
3.618038 3.172499 -0.581038
3.570767 3.165589 -0.581243
2.933539 2.651439 -0.625651
2.862530 2.629887 -0.627498
2.720893 2.603488 -0.629755
2.650098 2.598127 -0.629686
2.579318 2.604170 -0.628639
2.508552 2.605700 -0.628514
1.066476 3.148485 -2.813208
0.978163 3.820488 -1.223491
2.543708 2.670219 -3.600708
1.754899 3.047991 -0.600915
1.684715 3.068526 -0.598241
1.629700 3.087181 -0.590550
1.598665 3.107751 -0.599667
1.036771 3.608936 -1.126616
2.306771 2.799394 -3.653656
3.829790 3.211169 -0.612285
3.676906 3.161252 -0.616748
3.617783 3.159542 -0.616863
1.512130 2.820307 -1.883222
3.352184 2.794448 -0.673717
3.291873 2.774507 -0.663403
3.239840 2.747370 -0.652434
3.211861 2.718616 -0.675026
3.146189 2.692007 -0.656307
3.074743 2.652958 -0.676965
3.003995 2.645111 -0.677427
2.937539 2.620269 -0.676764
2.862269 2.593446 -0.682000
2.791376 2.584566 -0.682632
2.720554 2.582118 -0.682151
2.649863 2.578745 -0.682083
2.579042 2.577571 -0.681856
2.508292 2.576660 -0.681929
2.449156 2.585465 -0.680526
2.395868 2.595774 -0.687698
2.378429 2.613259 -0.660823
2.319415 2.631347 -0.676057
2.260559 2.662462 -0.673264
2.225960 2.681401 -0.670882
1.872106 3.036564 -3.300165
2.040743 2.945670 -3.576462
1.818406 3.081952 -3.232618
1.754637 3.107339 -3.228608
2.037212 2.952366 -3.389623
3.895262 3.193581 -0.669410
3.835755 3.180550 -0.658068
3.770998 3.172233 -0.650071
3.752901 3.154483 -0.678000
3.688542 3.152437 -0.669130
3.617531 3.150900 -0.668863
3.263762 2.746472 -0.686210
3.145488 2.662106 -0.693590
2.909069 2.599087 -0.698922
0.848863 4.172658 -2.131557
1.755304 3.061498 -0.668163
1.689432 3.082604 -0.662408
1.614094 3.118701 -0.662243
1.228535 3.014677 -2.109882
1.053533 3.828986 -1.151403
1.131231 4.247507 -2.112476
2.102382 2.944229 -3.381533
3.818019 3.159347 -0.686009
3.373962 2.760948 -0.730309
3.342559 2.727708 -0.743934
3.291910 2.706307 -0.736667
3.227884 2.695948 -0.724715
3.210132 2.668795 -0.751710
3.145356 2.648601 -0.745203
3.079318 2.624123 -0.743703
3.003714 2.614750 -0.730844
2.943871 2.611005 -0.731210
2.926868 2.599083 -0.757200
2.861899 2.586090 -0.750094
2.791141 2.570618 -0.751151
2.720806 2.555189 -0.752045
2.649799 2.552245 -0.734920
2.578748 2.546960 -0.734642
2.507969 2.552153 -0.734483
2.444672 2.550535 -0.745075
2.389571 2.568054 -0.749125
2.334743 2.594632 -0.752410
2.303517 2.617837 -0.739215
2.248667 2.652505 -0.741476
1.660413 3.094380 -0.682241
1.181290 3.095404 -2.448774
2.239894 2.937771 -3.370825
3.905597 3.174975 -0.726910
3.829380 3.144387 -0.737762
3.759248 3.143298 -0.737205
3.687788 3.145007 -0.737271
3.263509 2.676316 -0.758969
3.050915 2.605243 -0.765132
3.003479 2.598302 -0.765535
2.649688 2.527811 -0.770887
2.578698 2.518356 -0.771323
2.507686 2.532901 -0.769479
2.460410 2.534858 -0.768936
1.134283 3.100414 -2.465731
0.972559 3.766092 -1.201644
2.037233 3.049090 -0.738285
1.966500 3.050210 -0.737870
1.895726 3.043354 -0.738186
1.825276 3.043743 -0.737882
1.754689 3.062186 -0.736054
1.696252 3.086678 -0.733410
1.660382 3.098957 -0.732172
1.110828 3.030401 -2.005825
2.317554 2.930255 -3.375307
4.016814 3.231173 -0.747330
3.887642 3.157908 -0.753736
3.362007 2.704795 -0.804724
3.286538 2.655797 -0.811981
3.215795 2.637392 -0.813137
3.149335 2.623118 -0.810880
3.074323 2.597172 -0.816167
3.003226 2.582458 -0.817292
2.932425 2.583698 -0.816755
2.861711 2.569757 -0.817830
2.795617 2.556986 -0.815472
2.743820 2.540811 -0.803375
2.715404 2.531587 -0.823972
2.649336 2.517948 -0.821698
2.578387 2.505554 -0.822467
2.507502 2.508399 -0.821653
2.448358 2.513307 -0.820875
2.395460 2.528330 -0.828038
2.377741 2.550545 -0.800866
2.318769 2.577623 -0.814875
2.323052 4.539094 -0.364802
2.513995 2.704316 -3.580991
1.118073 3.096181 -2.529127
0.875601 3.224438 -2.338703
4.024757 3.211912 -0.804955
3.969929 3.182446 -0.801948
3.922972 3.165377 -0.786571
3.895017 3.155822 -0.807104
3.829479 3.145759 -0.803866
3.758847 3.149746 -0.803248
2.142321 2.889366 -3.583113
1.696441 3.214812 -3.045094
1.181757 3.094039 -2.414245
3.333913 2.674160 -0.827241
3.121587 2.607314 -0.832118
2.767293 2.537410 -0.836882
2.271726 2.601910 -0.829358
1.578090 3.222208 -3.157217
2.150509 2.889625 -3.507288
2.036948 3.053540 -0.805047
1.966231 3.052693 -0.804823
1.895443 3.041858 -0.805491
1.824743 3.037064 -0.805745
1.754163 3.050502 -0.804406
1.683455 3.074137 -0.801962
1.186842 2.224193 -3.110708
3.368651 2.691925 -0.876031
3.333710 2.672231 -0.877597
3.286436 2.653809 -0.879071
3.215307 2.628644 -0.880969
3.156658 2.615554 -0.881785
3.120967 2.605443 -0.882616
3.073917 2.594571 -0.883354
3.003096 2.579422 -0.884278
2.932265 2.563936 -0.885297
2.861400 2.544361 -0.869958
2.814246 2.542224 -0.869434
2.785886 2.528281 -0.890946
2.719805 2.514012 -0.888634
2.648971 2.507991 -0.888927
2.578184 2.495531 -0.889802
2.513217 2.484040 -0.882108
2.444205 2.482262 -0.884743
2.389005 2.500715 -0.888340
2.333861 2.526233 -0.891394
2.303101 2.551170 -0.878502
4.040158 3.208065 -0.866811
3.970092 3.175923 -0.869229
3.899910 3.161608 -0.853163
3.829557 3.161332 -0.852528
3.729922 3.167126 -0.853491
0.920981 3.192473 -2.599858
1.274106 4.145917 -1.186833
1.747913 2.850375 -2.069670
1.344578 3.108079 -2.604057
2.861425 2.533578 -0.903979
2.495441 2.467337 -0.908283
2.459908 2.468040 -0.907892
1.055420 4.376528 -2.145377
2.031917 3.040889 -0.869948
1.965925 3.042219 -0.872917
1.894998 3.035710 -0.873566
1.830300 3.028854 -0.865741
1.749269 3.033057 -0.870007
1.683384 3.051858 -0.871351
1.628811 3.083985 -0.873991
1.597604 3.111950 -0.860203
1.062936 3.109007 -2.534104
2.494733 2.685809 -3.636769
1.677351 2.850795 -2.069080
3.285934 2.661715 -0.944988
3.215224 2.636750 -0.946769
3.144467 2.616245 -0.948146
3.073729 2.596599 -0.949443
3.002953 2.580403 -0.950146
2.944044 2.559637 -0.952108
2.908136 2.536219 -0.954271
2.861159 2.518007 -0.955392
2.790220 2.502797 -0.956427
2.719478 2.484406 -0.957767
2.648567 2.479538 -0.957825
2.583347 2.476948 -0.949599
2.518889 2.450531 -0.959670
2.459627 2.454149 -0.959134
2.404495 2.462276 -0.963922
2.373139 2.477462 -0.951408
2.318064 2.505512 -0.954271
1.209415 3.092827 -2.469717
2.060061 3.018118 -0.892158
1.812429 3.022333 -0.891552
1.777233 3.023483 -0.891167
1.960880 3.079912 -3.184741
1.005545 3.149029 -2.325259
2.566019 2.458800 -0.976078
2.502491 2.762835 -3.514292
2.012830 3.027146 -0.924750
1.965644 3.029229 -0.924432
1.906601 3.028851 -0.924741
1.888736 3.018630 -0.950877
1.823899 3.008925 -0.943396
1.753601 3.010526 -0.942571
1.698507 3.020519 -0.946724
1.667401 3.037724 -0.933979
1.617309 3.070811 -0.939934
1.588950 3.100426 -0.916979
1.412873 2.898752 -2.068774
0.956064 3.582307 -1.185241
1.859012 3.036675 -3.441250
1.480488 3.152832 -2.599340
1.606450 2.854500 -2.068443
3.285550 2.650373 -1.012514
3.219580 2.621863 -1.011236
3.144092 2.595833 -1.016316
3.073146 2.571080 -1.018333
3.002483 2.553288 -1.019052
2.955777 2.547389 -1.002465
2.926850 2.523269 -1.025186
2.860909 2.499127 -1.023696
2.789916 2.487495 -1.024403
2.730888 2.472877 -1.025460
2.695427 2.465675 -1.025929
2.648295 2.461748 -1.025946
2.577519 2.449892 -1.026698
2.518585 2.433368 -1.027776
2.459358 2.432132 -1.027512
2.388271 2.448986 -1.025545
2.311644 2.485531 -1.013972
1.890104 2.804769 -1.936392
1.965512 3.012285 -0.959410
1.542675 3.130405 -0.965052
1.819387 2.799307 -1.936250
1.150509 3.932163 -1.117127
1.322351 3.092626 -2.449245
1.748599 2.797021 -1.936179
1.339627 3.127270 -2.892571
1.677748 2.798535 -1.936108
1.535670 2.867658 -2.067358
1.346472 2.928408 -2.063726
1.611559 2.802450 -1.932217
3.333450 2.673149 -1.027236
3.191342 2.604476 -1.032425
2.329557 2.462002 -1.041186
1.559302 2.808080 -1.918302
1.544099 4.195849 -1.148302
1.535509 2.830189 -1.942476
1.965231 2.985764 -1.012271
1.894425 2.991250 -1.012231
1.823642 2.984512 -1.012472
1.753231 2.987538 -1.011580
1.687083 3.010677 -1.012226
1.659335 3.025807 -0.990899
1.612399 3.055561 -1.005068
1.566264 3.092742 -0.985139
1.403455 3.256828 -0.968012
1.344665 3.274711 -0.973816
1.906054 3.090934 -3.176014
1.483906 2.848884 -1.928868
1.145670 3.084808 -2.174575
1.418064 2.860587 -1.931038
1.352130 2.873274 -1.926533
0.929858 4.392882 -2.194458
0.970134 3.170500 -2.324080
1.441130 2.885429 -2.049363
3.411104 2.739080 -1.088976
3.371502 2.693585 -1.070486
3.340380 2.661097 -1.084075
3.285632 2.634884 -1.080304
3.238000 2.617276 -1.081804
3.202653 2.602215 -1.082856
3.143627 2.585653 -1.083896
3.072774 2.567203 -1.085344
3.013791 2.545078 -1.086983
2.978484 2.535083 -1.087627
2.931401 2.520821 -1.088653
2.860274 2.498557 -1.090297
2.789789 2.489642 -1.090719
2.718912 2.477351 -1.091285
2.648050 2.464064 -1.092149
2.577288 2.446583 -1.093373
2.518500 2.425958 -1.094677
2.459130 2.410396 -1.095882
2.388097 2.417974 -1.094696
2.317130 2.447184 -1.091837
1.277028 2.911979 -1.927217
1.558410 3.082670 -1.041677
1.527111 3.123626 -1.027085
1.475052 3.131806 -1.035408
1.446983 3.164308 -1.012823
1.400068 3.180784 -1.011847
1.324479 3.196733 -1.023064
1.217844 2.945274 -1.925071
1.339165 4.220665 -1.241561
0.865217 3.217384 -2.593349
1.203535 4.153269 -1.232946
1.182167 2.961892 -1.924245
1.135307 2.982620 -1.922618
1.080580 3.008224 -1.914976
1.964943 2.961967 -1.064677
1.894120 2.965318 -1.064762
1.823413 2.957778 -1.065344
1.746814 2.965108 -1.071750
1.682101 2.988191 -1.077936
1.605762 3.044175 -1.064620
1.399616 3.138978 -1.048302
1.352842 3.155822 -1.047271
1.048601 3.037590 -1.924741
1.790231 3.100566 -3.211392
1.413191 4.166465 -1.149403
1.105450 4.124113 -1.282998
3.418566 2.719455 -1.168578
3.378439 2.687134 -1.143462
3.343736 2.656406 -1.145703
3.285384 2.624078 -1.147965
3.238271 2.609960 -1.132203
3.209349 2.592684 -1.153651
3.143656 2.568217 -1.151889
3.072356 2.563344 -1.152271
3.017268 2.547210 -1.147835
2.985856 2.527866 -1.160281
2.930789 2.517691 -1.155446
2.860091 2.505264 -1.156061
2.789244 2.486552 -1.157292
2.742090 2.474597 -1.141566
2.713742 2.457455 -1.162748
2.647717 2.447993 -1.159785
2.577050 2.430776 -1.160894
2.518217 2.408335 -1.162290
2.458983 2.402599 -1.146248
2.387863 2.403700 -1.154031
2.316889 2.416934 -1.160811
2.261870 2.446884 -1.163722
2.001825 2.957986 -3.529528
2.299981 4.515712 -0.354825
1.964771 2.946342 -1.099191
1.893875 2.950208 -1.099495
1.823262 2.939281 -1.100134
1.764325 2.943920 -1.098660
1.624153 3.016564 -1.093300
1.540370 3.055903 -1.088250
1.469774 3.078140 -1.086222
1.406649 3.058024 -1.109726
1.387064 3.102746 -1.083208
1.322986 3.122707 -1.091356
1.252733 3.180671 -1.086300
1.624200 3.275932 -2.964033
2.100894 3.130675 -3.173514
2.470689 2.670762 -3.723726
3.450153 2.749092 -1.155108
2.458762 2.398009 -1.179618
2.387948 2.399358 -1.179290
1.132781 4.451585 -2.183986
1.964500 2.922847 -1.151363
1.893502 2.924804 -1.151910
1.822934 2.912828 -1.152226
1.752493 2.928986 -1.150307
1.677125 2.965142 -1.143764
1.611066 2.980566 -1.145936
1.540245 2.984316 -1.145899
1.469535 2.990941 -1.145337
1.399130 3.035097 -1.124224
1.340797 3.070271 -1.122033
1.269587 3.136946 -1.114941
1.157884 3.021066 -2.040825
3.378776 2.681179 -1.227160
3.343561 2.662875 -1.228514
3.287606 2.630571 -1.221290
3.209068 2.592665 -1.213618
3.142877 2.563507 -1.219066
3.083920 2.544913 -1.220314
3.048288 2.529642 -1.221481
3.001073 2.509512 -1.222950
2.930413 2.491554 -1.224045
2.864413 2.480958 -1.221177
2.800974 2.473106 -1.207972
2.783198 2.463017 -1.233686
2.718215 2.453321 -1.226120
2.647505 2.432875 -1.227392
2.581399 2.414297 -1.225040
2.517630 2.396368 -1.229946
2.458512 2.388288 -1.230358
2.387649 2.388738 -1.229950
2.321231 2.394608 -1.232368
2.292986 2.408259 -1.211229
2.246193 2.433215 -1.225889
1.205509 3.115488 -2.814670
1.211625 2.178896 -3.127524
1.705764 2.945672 -1.165830
1.398917 2.976403 -1.162667
1.328186 3.006559 -1.176236
1.306158 3.042752 -1.158748
1.258559 3.064087 -1.173210
1.235342 3.119583 -1.151309
1.199976 3.138327 -1.166559
1.332455 4.190653 -1.209531
1.198156 4.117250 -1.201467
3.473175 2.742929 -1.239217
3.426191 2.711660 -1.241538
3.237153 2.608441 -1.232476
2.836042 2.467705 -1.242024
2.552653 2.403387 -1.246314
2.199413 2.460738 -1.240203
1.958269 2.894599 -1.212255
1.897939 2.896316 -1.217502
1.822691 2.887665 -1.204335
1.822583 2.879066 -1.229948
1.751917 2.906241 -1.218887
1.681455 2.936880 -1.216785
1.610316 2.933910 -1.217448
1.539606 2.923993 -1.217969
1.469005 2.921175 -1.217163
1.402969 2.930318 -1.219083
1.374884 2.956733 -1.196769
1.328132 2.969524 -1.213153
1.281092 3.023229 -1.191585
1.213092 3.074013 -1.191146
1.152637 3.147511 -1.182575
1.464863 2.886366 -2.083113
0.748040 4.347144 -2.226014
1.616526 3.244785 -3.013349
3.281191 2.643736 -1.300580
3.227639 2.619302 -1.304823
3.197849 2.599960 -1.277413
3.142856 2.579271 -1.284413
3.083790 2.549715 -1.286443
3.048676 2.519186 -1.288495
3.001105 2.498764 -1.290144
2.930190 2.480979 -1.291285
2.883176 2.473035 -1.274981
2.854597 2.464219 -1.295653
2.788691 2.453526 -1.292731
2.718041 2.438158 -1.293545
2.647263 2.419071 -1.294809
2.581137 2.404351 -1.292564
2.524318 2.394363 -1.299861
2.458219 2.384901 -1.297033
2.387401 2.382394 -1.296901
2.316210 2.386547 -1.296172
2.241351 2.420047 -1.290024
2.187521 2.456311 -1.290333
1.322969 1.954646 -3.315189
1.975774 2.875821 -1.239002
1.869597 2.884351 -1.238139
1.339665 2.943830 -1.231917
1.257863 2.999125 -1.227877
1.188929 3.055535 -1.225375
2.381354 2.916307 -3.383137
1.674054 3.240330 -3.004552
3.500915 2.767705 -1.307488
3.472774 2.743090 -1.289285
3.425554 2.711608 -1.308290
3.370599 2.684936 -1.315719
3.339502 2.672307 -1.305542
2.269309 2.399726 -1.311625
1.963764 2.865292 -1.289955
1.892936 2.876757 -1.289205
1.822321 2.867974 -1.289439
1.767179 2.879429 -1.293575
1.736613 2.893816 -1.283465
1.686939 2.903632 -1.277995
1.610078 2.906021 -1.269231
1.539314 2.891972 -1.269936
1.468561 2.888856 -1.269078
1.391979 2.899521 -1.276599
1.331849 2.909719 -1.280547
1.280127 2.923946 -1.291179
1.257318 2.957726 -1.264146
1.210144 2.977321 -1.279101
1.198696 3.004486 -1.260417
1.140533 3.058863 -1.256884
1.379167 4.336816 -0.363519
3.195637 2.598432 -1.374545
3.146042 2.577731 -1.358024
3.083651 2.547017 -1.353170
3.047542 2.521976 -1.355007
3.000843 2.499448 -1.356639
2.929867 2.484455 -1.357512
2.882682 2.470443 -1.358389
2.847439 2.462502 -1.358828
2.788517 2.448892 -1.359568
2.717579 2.421550 -1.361458
2.646732 2.411085 -1.362005
2.587729 2.407068 -1.362118
2.552479 2.402637 -1.362281
2.517146 2.396675 -1.362469
2.458038 2.392224 -1.362500
2.387144 2.384889 -1.363000
2.315991 2.385995 -1.362601
2.269271 2.399884 -1.344800
2.240868 2.417134 -1.363203
1.668880 2.883399 -1.304665
1.609814 2.874422 -1.305340
1.539229 2.866182 -1.305460
1.468356 2.865929 -1.304509
1.409432 2.881899 -1.303415
1.209748 2.946495 -1.314797
1.145443 2.997660 -1.315132
1.117509 3.046236 -1.291495
1.074061 3.075349 -1.308031
1.017408 3.161209 -2.273255
1.555828 3.255160 -3.017241
3.366552 2.687033 -1.376708
3.331377 2.671333 -1.377788
3.284189 2.648599 -1.379342
3.229139 2.618307 -1.375936
2.290950 2.821401 -3.577901
1.963439 2.846736 -1.358344
1.892703 2.855491 -1.357578
1.822000 2.850328 -1.357750
1.751274 2.857719 -1.356858
1.680408 2.860774 -1.356601
1.609630 2.850601 -1.356955
1.538934 2.841915 -1.357137
1.468047 2.847651 -1.356090
1.397448 2.865698 -1.354344
1.338455 2.877417 -1.353325
1.274981 2.897314 -1.348297
1.212243 2.917745 -1.376130
2.302693 2.744479 -1.958278
2.243741 2.744606 -1.958160
3.139198 2.575667 -1.438568
3.083087 2.550314 -1.436123
3.047951 2.533413 -1.437354
3.000743 2.507502 -1.422554
2.929862 2.493811 -1.423264
2.874801 2.475764 -1.418814
2.842958 2.460677 -1.430899
2.788246 2.442285 -1.426427
2.717349 2.420788 -1.427809
2.646426 2.407677 -1.428606
2.591446 2.406210 -1.422946
2.528540 2.387295 -1.429620
2.457722 2.378238 -1.430127
2.386752 2.380955 -1.429616
2.315927 2.385748 -1.428991
2.245245 2.410866 -1.426790
1.303196 2.881752 -1.369752
1.154493 2.949651 -1.386656
1.094767 3.014097 -1.360910
3.366469 2.692531 -1.442998
3.331203 2.674302 -1.444231
3.283837 2.649682 -1.445934
3.224590 2.618205 -1.448090
3.189724 2.600590 -1.449394
2.575425 2.399375 -1.445634
1.951375 2.826191 -1.410040
1.892387 2.829309 -1.426321
1.821627 2.829328 -1.426163
1.750882 2.832863 -1.425764
1.686031 2.827059 -1.417434
1.609408 2.821045 -1.409146
1.543248 2.804757 -1.430134
1.514781 2.816594 -1.408476
1.461726 2.827064 -1.416090
1.396882 2.845983 -1.422790
1.338021 2.859083 -1.421637
1.278861 2.875033 -1.431203
1.255531 2.889913 -1.402052
1.022726 3.085317 -1.387696
3.000233 2.522545 -1.504325
2.929416 2.498896 -1.505915
2.881830 2.481667 -1.506913
2.846561 2.457884 -1.491986
2.787696 2.430783 -1.493814
2.716876 2.412955 -1.494835
2.646179 2.407698 -1.495009
2.528248 2.384651 -1.496262
2.457300 2.376130 -1.496665
2.386434 2.382389 -1.495929
2.320417 2.390943 -1.491693
2.244903 2.414460 -1.492870
1.582920 2.816896 -1.951934
2.432469 2.760842 -3.578255
1.668233 2.811663 -1.443446
1.609259 2.803059 -1.443974
1.479340 2.810033 -1.442667
1.203547 2.897958 -1.448267
1.138262 2.929967 -1.449297
1.337804 1.901710 -3.389387
3.566682 2.838689 -1.499509
1.323351 2.886458 -1.946179
3.330462 2.673833 -1.494222
3.224568 2.621271 -1.514479
3.189193 2.603972 -1.515630
3.141858 2.584184 -1.516847
3.071165 2.557476 -1.518646
2.292021 2.401774 -1.510634
1.962417 2.775875 -1.497642
1.891991 2.798851 -1.495427
1.821314 2.806535 -1.494521
1.750528 2.803976 -1.494679
1.679738 2.796269 -1.494892
1.609014 2.792642 -1.494693
1.538217 2.794542 -1.494340
1.467337 2.805606 -1.493172
1.401318 2.833750 -1.487422
1.346389 2.848856 -1.510351
1.281465 2.860920 -1.509144
1.231575 2.880771 -1.469722
1.091700 2.952153 -1.464458
1.290840 1.906443 -3.392759
1.220653 1.912231 -3.760873
2.019420 2.818259 -2.021203
2.858387 2.485212 -1.582833
2.834727 2.461061 -1.541568
2.784472 2.449021 -1.571415
2.716553 2.434078 -1.576439
2.648775 2.422417 -1.572899
2.457028 2.387672 -1.562167
2.390887 2.393434 -1.558203
2.339111 2.398632 -1.544264
2.312493 2.416743 -1.580224
2.244797 2.434814 -1.574349
1.277892 4.208715 -1.259458
1.231450 2.877946 -1.520290
1.195759 2.893012 -1.518988
1.137226 2.917764 -1.516920
1.082620 2.945047 -1.520314
3.141618 2.581432 -1.583967
3.070677 2.558311 -1.585349
3.000213 2.527354 -1.587439
2.929169 2.509844 -1.588422
2.362406 2.406823 -1.577163
1.979158 2.740778 -1.573292
1.946726 2.772913 -1.559092
1.891663 2.788880 -1.563309
1.820979 2.794024 -1.562651
1.750210 2.786925 -1.562861
2.400873 2.737462 -3.671415
2.811185 2.472075 -1.607634
1.266403 4.229858 -1.304764
1.087917 3.088285 -2.104764
2.029153 2.598580 -0.319465
2.098347 2.639191 -0.318913
1.951712 2.643807 -0.321106
2.025354 2.641045 -0.320594
2.245116 2.706965 -0.319833
2.311762 2.715495 -0.319965
2.385479 2.712575 -0.319547
2.593229 2.780323 -0.326283
2.658004 2.781156 -0.327153
2.724630 2.789651 -0.327278
2.799057 2.785637 -0.328090
3.004717 2.845632 -0.334646
3.072318 2.852764 -0.338363
3.129104 2.852476 -0.345816
1.827167 2.656736 -0.333057
1.971731 2.709156 -0.319193
2.036462 2.709993 -0.320113
2.103097 2.718521 -0.320267
2.176797 2.715675 -0.319896
2.374467 2.774085 -0.322639
2.448064 2.786047 -0.325304
2.516552 2.777104 -0.325547
2.729785 2.846922 -0.331314
2.793993 2.852139 -0.332130
2.854975 2.855255 -0.332083
2.929102 2.851759 -0.332297
3.137616 2.917882 -0.339559
3.177630 2.885429 -0.347493
3.196689 2.920314 -0.350656
1.891467 2.715238 -0.319316
2.166493 2.775981 -0.324160
2.239917 2.788250 -0.326542
2.303222 2.791163 -0.324913
2.520255 2.836877 -0.333613
2.587417 2.852045 -0.336300
2.653951 2.860752 -0.336262
2.863231 2.907875 -0.341892
2.932025 2.912792 -0.339198
3.002479 2.929495 -0.336149
3.070491 2.921078 -0.335101
0.783142 4.175611 -2.152877
1.899050 2.774660 -0.320889
1.961929 2.786450 -0.321611
2.030410 2.792389 -0.325083
2.095656 2.792427 -0.326981
2.316767 2.836182 -0.350710
2.372259 2.836986 -0.344969
2.440462 2.848873 -0.346632
2.733711 2.892099 -0.343309
2.794446 2.902955 -0.344575
3.071328 2.985368 -0.338476
3.137797 2.994163 -0.338017
1.815012 2.776575 -0.319875
2.099052 2.828085 -0.348724
2.165627 2.822118 -0.345580
2.241483 2.830733 -0.352422
2.445816 2.875290 -0.379757
2.511278 2.874915 -0.362285
2.559415 2.884328 -0.362410
2.586630 2.907927 -0.396500
2.656463 2.918476 -0.394066
2.729166 2.931790 -0.395177
2.803540 2.934425 -0.384323
2.870220 2.942493 -0.377830
2.921963 2.952533 -0.366106
2.946672 2.979932 -0.395736
3.012275 2.980222 -0.355465
3.152519 3.052630 -0.339075
3.209519 3.053073 -0.347189
3.256561 3.049835 -0.355068
1.827087 2.843967 -0.320731
1.894887 2.850837 -0.323066
1.958939 2.864167 -0.331962
2.024703 2.849679 -0.345078
2.106512 2.866514 -0.393703
2.169309 2.858651 -0.395278
2.240047 2.857495 -0.394679
2.315233 2.867210 -0.400278
2.382755 2.874002 -0.395441
2.510519 2.900733 -0.405901
2.879175 2.969724 -0.415059
3.004329 3.007068 -0.391915
3.048667 3.048139 -0.369752
3.082722 3.058047 -0.346304
1.755752 2.850811 -0.333517
2.049042 2.866262 -0.367981
2.400370 2.890528 -0.417217
2.449059 2.899208 -0.418328
2.802415 2.960894 -0.427396
3.009971 3.054184 -0.409358
3.081047 3.125905 -0.344436
3.142356 3.131856 -0.339198
3.213505 3.133762 -0.347656
3.258212 3.141763 -0.353394
1.142368 3.880245 -1.103172
1.752967 2.919531 -0.322358
1.819366 2.928606 -0.322123
1.893500 2.925637 -0.329550
1.952908 2.922995 -0.349175
2.022377 2.918422 -0.400922
2.211932 2.883542 -0.432073
2.248573 2.911736 -0.438042
2.315019 2.920646 -0.437899
2.382292 2.928302 -0.439288
2.455663 2.926026 -0.438514
2.516653 2.936642 -0.440127
2.576854 2.948325 -0.440467
2.656071 2.980502 -0.446592
2.729133 2.993321 -0.448406
2.793537 2.994790 -0.448757
2.867020 3.002830 -0.443858
2.924623 3.018420 -0.439406
2.938983 3.054825 -0.441425
3.044509 3.103169 -0.373271
3.279505 3.201626 -0.353123
1.712307 2.913486 -0.339042
1.897524 2.988613 -0.345054
1.970785 2.934330 -0.372514
2.071849 2.905660 -0.425469
2.112092 2.928559 -0.437932
2.172182 2.922597 -0.440719
2.445892 2.985455 -0.443651
2.513896 2.992071 -0.446399
2.588163 2.988500 -0.447175
2.794430 3.058623 -0.451644
2.859140 3.059550 -0.452651
2.988203 3.082005 -0.432142
3.010166 3.124320 -0.402899
3.064982 3.196061 -0.340757
3.141736 3.198112 -0.339208
3.203512 3.207418 -0.342446
1.753741 2.993833 -0.319906
1.831934 2.995021 -0.323795
1.967566 2.979873 -0.401594
2.061000 2.938151 -0.435469
2.171302 2.988910 -0.440000
2.235377 2.990807 -0.439948
2.299925 2.992009 -0.440684
2.376769 2.995222 -0.441941
2.527804 3.051594 -0.445363
2.587491 3.054634 -0.447073
2.648199 3.065630 -0.448245
2.717100 3.056276 -0.449467
2.935203 3.124874 -0.446184
2.975241 3.117779 -0.438495
2.983324 3.194909 -0.380290
3.010945 3.206319 -0.349922
3.075019 3.265226 -0.335684
3.139090 3.267075 -0.335611
3.204708 3.266707 -0.338255
3.286429 3.262653 -0.348446
3.335528 3.270485 -0.350531
1.753953 3.058262 -0.320767
1.820644 3.056358 -0.325611
1.879538 3.049807 -0.345686
2.030108 3.002085 -0.435453
2.095085 2.984774 -0.439851
2.320269 3.056785 -0.439196
2.382290 3.058509 -0.441252
2.447361 3.062587 -0.443856
2.663081 3.124776 -0.447068
2.728550 3.124609 -0.449573
2.796217 3.131722 -0.451776
2.871337 3.126933 -0.454113
2.950788 3.199050 -0.416748
2.997410 3.267249 -0.340472
3.214719 3.334026 -0.341601
3.275465 3.337595 -0.341300
3.345323 3.341504 -0.347488
3.418564 3.305369 -0.378807
3.492417 3.321386 -0.390403
3.556656 3.347306 -0.396436
3.572101 3.300352 -0.421856
1.609123 3.062873 -0.319571
1.676884 3.055361 -0.318934
1.936156 3.034722 -0.398429
1.978665 3.012295 -0.432153
2.104703 3.055738 -0.436170
2.168849 3.057512 -0.436318
2.244821 3.062071 -0.436028
2.449384 3.124216 -0.441679
2.516637 3.131919 -0.443205
2.585429 3.122721 -0.444349
2.798240 3.193392 -0.449790
2.861612 3.199961 -0.449226
2.910335 3.186523 -0.445705
2.920693 3.269540 -0.389264
2.952613 3.285349 -0.346950
3.008929 3.331412 -0.332983
3.070219 3.341549 -0.335307
3.139899 3.349779 -0.336835
3.426130 3.399808 -0.349649
3.478625 3.374501 -0.364785
3.571189 3.409884 -0.377960
3.679248 3.358393 -0.427231
1.688825 3.122617 -0.319092
1.756314 3.129976 -0.321111
1.812439 3.141434 -0.325698
1.864123 3.117341 -0.339840
1.920064 3.074781 -0.398632
1.964993 3.067686 -0.432231
2.036592 3.063840 -0.436255
2.174377 3.119888 -0.433873
2.237035 3.132045 -0.434323
2.298828 3.134200 -0.436035
2.373755 3.129691 -0.438233
2.590877 3.186158 -0.443370
2.657173 3.202656 -0.444712
2.716872 3.205717 -0.446479
2.867323 3.257499 -0.438901
2.933922 3.343684 -0.339019
3.164321 3.371893 -0.346870
3.229967 3.375640 -0.357172
3.287507 3.405564 -0.349118
3.352983 3.415499 -0.340507
3.493590 3.429313 -0.356300
3.532028 3.433030 -0.360769
3.632866 3.424435 -0.394498
3.692868 3.415478 -0.416686
1.194009 3.896290 -1.073160
1.479427 3.125822 -0.316731
1.545533 3.135376 -0.316139
1.619849 3.131886 -0.317439
1.829455 3.196960 -0.327896
1.894568 3.128779 -0.381462
1.968825 3.117950 -0.433644
2.029146 3.133296 -0.434941
2.087762 3.129539 -0.435274
2.319531 3.198263 -0.434986
2.384571 3.198849 -0.436781
2.449941 3.198896 -0.439203
2.527269 3.201367 -0.441519
2.730871 3.265083 -0.445455
2.792448 3.267471 -0.446785
2.876781 3.289339 -0.422066
2.867913 3.330780 -0.398715
2.889228 3.351464 -0.356748
2.934889 3.406832 -0.334844
2.998356 3.406493 -0.339712
3.081767 3.389409 -0.357545
3.147377 3.393142 -0.367910
3.213715 3.395859 -0.379575
3.265594 3.420035 -0.364587
3.350125 3.472071 -0.346755
3.422526 3.470318 -0.344026
3.485722 3.477615 -0.349913
3.549608 3.483978 -0.357080
3.590703 3.483692 -0.366422
3.636493 3.476535 -0.384415
3.697370 3.466499 -0.409189
3.747512 3.480866 -0.427469
3.778314 3.474395 -0.442205
0.955684 4.080514 -2.091981
1.469236 4.025090 -1.025599
1.412382 3.132179 -0.318566
1.549005 3.194483 -0.315917
1.613745 3.199129 -0.318080
1.675101 3.201937 -0.319111
1.749943 3.197765 -0.321330
1.951752 3.141285 -0.428179
2.108045 3.194249 -0.433259
2.173946 3.204031 -0.432342
2.242219 3.195725 -0.432651
2.447531 3.267354 -0.435415
2.512828 3.267535 -0.437710
2.578524 3.267198 -0.440639
2.656254 3.269074 -0.443771
2.804491 3.329589 -0.442120
2.841298 3.317910 -0.431085
2.843630 3.392507 -0.381616
2.869777 3.415601 -0.345927
3.052577 3.408668 -0.378075
3.292462 3.457249 -0.377828
3.420502 3.538314 -0.341226
3.490057 3.542672 -0.347040
3.553502 3.557073 -0.354946
3.622415 3.548696 -0.369821
3.698106 3.545092 -0.400042
1.008948 3.816557 -1.184399
1.341302 3.195057 -0.316413
1.404861 3.201504 -0.316377
1.462908 3.198762 -0.315781
1.697561 3.263208 -0.320755
1.756750 3.258727 -0.322264
1.823314 3.274811 -0.324068
1.887573 3.252264 -0.339420
1.974142 3.184975 -0.432858
2.034781 3.196233 -0.433939
2.241500 3.261700 -0.431807
2.307335 3.278868 -0.432337
2.370833 3.263863 -0.434191
2.598895 3.331697 -0.439106
2.660531 3.334127 -0.440483
2.723564 3.345779 -0.441738
2.822120 3.362722 -0.425618
2.867605 3.474600 -0.341375
2.918403 3.481146 -0.332670
2.976873 3.456351 -0.356936
3.016094 3.438735 -0.385078
3.323064 3.509078 -0.375875
3.356986 3.550616 -0.369899
3.372498 3.536859 -0.356363
3.758814 3.549830 -0.428276
3.795167 3.536433 -0.448781
3.839646 3.552057 -0.470880
3.891910 3.511679 -0.496689
0.951599 3.661252 -1.189715
0.925637 4.164910 -2.110519
1.484932 3.260459 -0.316380
1.551913 3.268762 -0.317505
1.616642 3.269879 -0.318941
1.891125 3.331840 -0.323642
1.993368 3.233271 -0.431724
2.037559 3.252737 -0.431948
2.099526 3.279644 -0.432644
2.161941 3.266370 -0.432849
2.382078 3.332162 -0.433127
2.448894 3.340653 -0.433927
2.523347 3.337074 -0.435545
2.729526 3.407296 -0.439639
2.774898 3.400580 -0.437403
2.808352 3.419559 -0.408116
2.795397 3.477682 -0.396387
2.933183 3.538976 -0.332585
3.416436 3.617432 -0.349297
3.482719 3.612144 -0.346205
3.547828 3.616717 -0.355686
3.588380 3.617278 -0.364090
3.640554 3.626224 -0.381750
3.697509 3.625460 -0.403292
3.739399 3.595700 -0.421953
3.768769 3.616642 -0.437217
1.280406 3.266754 -0.317788
1.343252 3.270599 -0.315849
1.407811 3.272009 -0.316967
1.616611 3.334290 -0.318462
1.681380 3.335297 -0.320059
1.746356 3.336077 -0.321976
1.821738 3.341615 -0.320896
1.942446 3.364650 -0.322446
2.048033 3.289500 -0.429137
2.172342 3.330057 -0.431101
2.237580 3.336065 -0.431991
2.313575 3.340718 -0.432021
2.452521 3.399432 -0.433783
2.516788 3.404842 -0.435099
2.584014 3.412663 -0.436738
2.652744 3.403802 -0.438165
2.826823 3.537348 -0.353276
2.859542 3.545354 -0.339917
3.366906 3.616726 -0.378568
3.492585 3.668632 -0.352566
3.545675 3.656255 -0.359158
3.563542 3.682318 -0.369936
3.624509 3.668868 -0.386625
3.833083 3.614229 -0.468267
3.886962 3.622646 -0.493774
3.921024 3.612774 -0.510521
1.191894 3.265664 -0.326550
1.408323 3.335549 -0.317432
1.472726 3.337105 -0.318399
1.536998 3.338898 -0.319033
1.766415 3.400668 -0.318715
1.827693 3.403584 -0.319783
1.890752 3.415208 -0.321050
1.962394 3.411718 -0.322075
1.999238 3.417789 -0.323698
2.092017 3.341439 -0.428910
2.129413 3.346731 -0.431493
2.176460 3.357786 -0.429797
2.259906 3.387680 -0.431184
2.301052 3.403434 -0.430906
2.336342 3.411742 -0.429637
2.372462 3.409450 -0.432373
2.658995 3.465533 -0.437769
2.720766 3.478986 -0.436712
2.788885 3.554486 -0.389052
2.866585 3.605160 -0.339340
2.930555 3.621816 -0.330507
3.353811 3.671050 -0.378925
3.417038 3.681040 -0.350382
3.699380 3.692724 -0.416686
3.735248 3.674764 -0.428750
3.772693 3.687969 -0.446358
3.835649 3.675408 -0.473670
1.338149 3.957816 -1.031134
1.049186 3.759559 -1.136125
1.202623 3.332888 -0.321087
1.264465 3.338383 -0.317241
1.328019 3.341204 -0.316632
1.553535 3.394953 -0.319580
1.613149 3.407696 -0.318908
1.682861 3.411550 -0.318538
1.892094 3.483209 -0.329472
1.962804 3.475524 -0.322406
2.018328 3.478124 -0.324130
2.123670 3.391316 -0.428127
2.162047 3.413947 -0.427521
2.220446 3.409684 -0.429568
2.368587 3.460934 -0.429837
2.398962 3.472348 -0.431920
2.453866 3.475943 -0.432344
2.518366 3.477345 -0.433458
2.595226 3.480715 -0.435108
2.720365 3.534971 -0.434781
2.750684 3.541146 -0.426877
2.821092 3.618328 -0.357215
2.986709 3.678509 -0.335670
3.369406 3.707057 -0.358427
3.418042 3.744099 -0.352134
3.476884 3.729672 -0.357535
3.500153 3.753177 -0.368500
3.559884 3.749851 -0.382434
3.631276 3.738026 -0.402097
3.681427 3.738132 -0.418007
3.876658 3.683123 -0.497250
3.914267 3.695679 -0.515259
1.355545 3.997524 -1.043625
1.540139 4.115604 -1.067000
1.140750 3.335487 -0.339575
1.345297 3.396059 -0.318545
1.405318 3.408226 -0.318651
1.475403 3.411586 -0.318936
1.680042 3.473948 -0.331363
1.750606 3.462473 -0.336375
1.823106 3.476293 -0.337368
2.035142 3.535405 -0.324276
2.182722 3.469329 -0.426047
2.243616 3.480119 -0.427795
2.300156 3.469104 -0.429028
2.337033 3.475181 -0.430658
2.518262 3.541901 -0.433035
2.582745 3.543448 -0.433991
2.647553 3.544512 -0.435587
2.785224 3.617366 -0.392906
2.864140 3.684200 -0.344719
2.932295 3.683722 -0.333488
3.327573 3.724561 -0.377120
3.360090 3.757205 -0.348325
3.712241 3.769325 -0.438057
3.765068 3.758193 -0.457517
3.834547 3.749884 -0.487106
3.906356 3.752368 -0.523123
1.141616 3.405569 -0.341736
1.200564 3.404097 -0.323851
1.267455 3.416555 -0.320453
1.479236 3.469710 -0.318946
1.544906 3.479932 -0.317722
1.613142 3.486429 -0.321217
1.910861 3.515917 -0.336840
1.956733 3.549368 -0.337042
2.085724 3.559778 -0.327528
2.305248 3.539778 -0.427651
2.373175 3.552248 -0.429149
2.369219 3.524292 -0.430847
